# .PCD v.7 - Point Cloud Data file format
VERSION .7
FIELDS x y z
SIZE 4 4 4
TYPE F F F
COUNT 1 1 1
WIDTH 1641
HEIGHT 1
VIEWPOINT 0 0 0 1 0 0 0
POINTS 1641
DATA ascii
4.938325 0.4505371 -3.066874
5.615917 0.4041092 0.04417546
4.78649 1.654701 -3.623944
5.215643 0.8076486 -1.72001
4.225584 1.710391 -4.186265
5.256457 0.855006 -1.586954
5.236611 0.8973136 -1.690368
5.589574 0.6298896 -0.2282992
5.483117 0.6747292 -0.7268206
4.324261 1.34397 -4.176457
4.694385 1.648878 -4.072855
4.699751 1.651081 -4.072763
5.048054 0.6296214 -2.579082
5.004559 0.7317366 -2.735721
5.129444 0.4768648 -2.279262
4.179049 1.609577 -1.290485
4.168057 1.608072 -1.286067
4.037617 1.572464 -1.520517
4.175633 1.609577 -1.289095
5.33673 0.1708968 -1.520445
4.419296 1.1586 -0.2114427
5.323829 0.1698614 -1.58315
5.319601 0.2750373 -1.535722
4.319713 1.396168 -4.331754
5.321193 0.2826964 -1.52933
5.262726 0.3309309 -1.728003
5.340584 0.4703963 -1.341237
4.246031 2.4143 -3.757045
5.240956 0.375199 -1.778508
5.346502 0.6961173 -1.203748
5.288184 0.1692371 -1.918841
2.253814 2.373389 -3.397728
4.985085 0.9062065 -2.810656
4.744853 1.081941 -2.785968
2.24205 2.399077 -3.419036
2.003465 2.355416 -3.447128
2.269393 2.338502 -3.405792
2.61571 2.441196 -3.506073
2.618496 2.431526 -3.500694
2.610331 2.435955 -3.502157
4.839199 1.488643 -3.510875
4.941094 1.551074 -3.609993
4.705539 1.650216 -4.076269
4.914689 1.08335 0.04980695
4.007225 2.399726 -3.290804
5.623864 -0.9079595 -0.780259
3.936426 2.485564 -3.633425
5.620648 -0.5916349 -0.649713
4.311005 1.342008 -4.170329
5.616291 -0.5813105 -0.6515603
4.992911 0.3431833 -3.023435
3.958883 2.492699 -3.683795
5.506123 -0.6678548 -1.265181
5.479441 -0.4458336 -1.179034
4.405504 1.118104 -2.824399
4.235437 2.404187 -3.750038
5.480522 -0.4565206 -1.229142
5.480964 -0.4257704 -1.219539
5.352872 -0.1593871 -1.650906
5.21546 0.07560454 -2.063462
5.095046 0.1707297 -2.565975
5.348899 -0.1551419 -1.649234
5.056946 0.4107708 -2.667865
4.981131 0.3327965 -3.096311
4.241142 1.68224 -4.200341
5.317017 0.06146513 -1.685083
5.470505 -0.075027 -1.027074
5.269464 0.3306787 -1.726587
5.476583 -0.091438 -1.028677
5.537258 -0.07516371 -0.7784013
5.355006 0.3132773 -1.392408
4.792367 1.650609 -3.621181
5.099923 0.6507677 -2.310433
3.009954 0.9523462 -2.402207
4.442016 1.309181 -0.5624899
4.362612 1.3597 -4.201612
4.870052 1.069101 0.01362924
5.10184 1.067375 -2.149149
5.116878 1.06304 -2.013587
4.996157 0.6024862 -2.859555
4.721213 1.069767 -2.774271
5.115444 1.344092 -1.971837
5.241056 1.455158 -1.486211
4.985604 1.805746 -2.160699
4.872242 1.668436 -3.216922
2.123719 0.5463042 1.244842
4.95442 0.805779 -2.973222
5.065094 0.1606738 -2.6558
4.784432 1.046637 -2.663958
4.985771 0.9547235 -2.771966
2.127793 0.5373678 1.218268
4.891718 1.357935 -2.844493
2.222877 0.5546128 1.239938
4.969171 0.9311945 -2.750561
4.910576 1.419306 -2.886185
2.515318 0.613211 1.098187
4.984339 0.9353256 -2.742708
4.961598 1.061681 -2.798801
5.016725 0.4212693 -2.685731
4.903515 1.414963 -2.888806
4.917906 1.420378 -2.880622
5.050545 0.5487832 -2.617309
5.082102 0.273699 -2.600281
5.01854 0.7269306 -2.72834
3.535836 -1.000916 0.3371417
5.121338 0.0750943 -2.500851
4.977436 1.042525 -2.692024
5.044392 0.5443597 -2.621858
5.074337 0.4127247 -2.648673
5.121306 0.4277546 -2.394149
3.539473 -0.9981093 0.3415919
5.127843 0.3673168 -2.413563
5.112412 0.3680875 -2.425516
5.103591 0.6457521 -2.317997
2.420488 0.5608369 1.223473
5.103323 0.7394021 -2.284343
5.109771 0.6442836 -2.318018
5.102441 0.6485026 -2.317277
5.231459 0.0806528 -2.065237
4.332132 2.252123 -3.809925
4.733285 1.133553 -2.863372
4.853084 1.492669 -3.519296
4.962828 0.4861906 -3.138692
4.957085 0.512776 -3.129498
4.722479 1.131641 -2.868058
4.772674 1.044633 -2.672417
4.790156 1.824589 -3.581736
4.9858 0.40403 -3.0044
5.016434 0.4218076 -2.927
5.0217 0.3323451 -2.902346
4.954784 0.5091973 -3.128856
4.757146 1.814281 -3.600682
4.770897 1.608621 -3.784459
4.872106 1.318746 -3.557728
5.009862 0.3553515 -2.954952
4.754366 1.816697 -3.601714
4.765852 1.820415 -3.604196
5.002706 0.485895 -2.893453
4.798679 1.728076 -3.423865
5.00026 0.7270129 -2.737729
5.344849 -0.07570305 -1.626229
4.798102 1.651996 -3.618081
4.829773 1.491866 -3.507124
4.401712 2.309274 -3.810961
4.770414 1.626255 -3.777994
4.784455 1.620245 -3.787476
4.733605 1.799132 -3.578847
4.759565 1.815301 -3.589726
4.775439 1.622876 -3.781464
5.334864 0.1708339 -1.521262
4.760204 1.637295 -3.768643
4.78749 1.652985 -3.620979
4.580097 2.472407 -3.76784
4.84028 1.491392 -3.515778
4.799519 1.71678 -3.428493
4.808466 1.728429 -3.425586
4.736509 1.985796 -3.415084
5.461596 -0.1575594 -1.065504
4.737269 1.981835 -3.416623
4.869252 1.537223 -3.321256
4.682472 2.547524 -3.795054
4.814649 1.732849 -3.42477
4.57772 2.486529 -3.772572
4.591553 2.350411 -3.464653
4.865799 1.670968 -3.217698
5.345833 0.3384853 -1.382049
4.525746 2.442867 -3.759051
5.528792 -0.02041413 -0.8051401
4.866958 1.512398 -3.513618
4.853026 1.500121 -3.51062
4.888438 1.545365 -3.326832
4.590167 2.47819 -3.770218
4.873929 1.535198 -3.322798
4.637906 2.335574 -3.347109
4.643458 2.335428 -3.348063
4.787123 1.948607 -3.284745
4.756139 1.994807 -3.417019
4.761071 1.999655 -3.418692
5.334084 0.7165872 -1.242554
4.65367 2.346973 -3.344118
5.00346 0.4804257 -3.119677
4.664187 2.351379 -3.350301
4.706532 2.376338 -3.358029
4.64472 2.374346 -3.467875
4.704261 2.431618 -3.485295
5.594333 0.6805273 -0.165793
4.948656 0.5508376 -3.023575
4.838871 1.757042 -3.267689
4.94967 0.8061672 -2.976192
4.878468 1.540215 -3.321246
4.751946 1.092012 -2.797209
4.982891 0.5478935 -3.007364
4.967467 0.8868672 -3.058682
4.859355 1.14941 -2.925546
4.864493 1.149191 -2.919146
4.873293 1.151321 -2.90963
4.972742 0.7734855 -2.918647
4.954315 0.8586242 -2.96805
4.995383 0.3590759 -2.96042
5.003764 0.4350253 -2.920623
4.858102 1.815793 -3.156371
4.977656 0.4862772 -2.910497
4.586946 1.109348 -0.009705689
4.882323 1.155891 -2.915082
4.980711 0.8560812 -2.958203
4.984007 0.6651691 -3.001147
4.826054 1.502259 -3.50855
4.942111 1.028285 -2.880214
4.999296 0.7300871 -2.73899
4.749225 1.92596 -3.464125
4.969403 1.032823 -2.873403
4.972341 0.8863996 -3.055742
4.97269 0.5082237 -3.12408
4.829547 1.738426 -3.425253
4.867522 1.677821 -3.228138
4.859457 1.351437 -2.8435
4.817558 1.826854 -3.515108
4.869078 1.606015 -3.101539
4.711689 2.258174 -3.526433
4.88309 1.355835 -2.845732
4.770937 1.963569 -3.333802
4.812613 1.660738 -3.611148
4.927866 1.378717 -2.807419
4.935922 1.388041 -3.244946
4.932382 1.388464 -3.24378
4.834802 1.874851 -3.277511
4.690051 2.227079 -2.802085
4.834365 1.806092 -3.161094
5.260791 0.6310702 -1.606141
4.850546 1.813021 -3.166776
4.640161 2.052909 -2.594338
4.693807 2.100062 -2.547676
4.688875 2.089126 -2.555029
4.704384 2.10253 -2.547052
4.896999 1.698655 -3.223213
5.346557 0.3231638 -1.389657
4.73743 1.129091 -2.852078
2.640927 0.5922351 1.154306
4.961181 0.8065417 -2.975261
1.867364 -1.500846 1.85973
2.702707 0.6481901 1.025788
5.114161 0.834676 -2.195849
5.238887 0.2860827 -1.921855
5.260326 0.09009431 -2.031675
5.260909 0.09383176 -2.030419
5.206748 0.4363003 -1.89921
5.253456 0.3869326 -1.869601
5.222416 0.6450859 -1.783407
5.391953 -0.4081696 -1.67106
5.221621 0.6432584 -1.782744
5.363595 -0.1305115 -1.535489
5.33395 0.4806551 -1.334751
5.305008 0.6881978 -1.273263
5.309649 0.6648005 -1.271611
5.491121 -0.3592639 -1.129402
5.480333 -0.1569287 -1.059066
5.382544 0.7025645 -1.163502
5.608048 -0.280952 -0.5820645
5.510651 0.1172027 -0.903433
4.816261 1.053409 0.1040934
5.614782 -0.2838039 -0.5768292
5.683877 -0.731887 -0.5312841
5.272223 0.9121804 -1.349261
5.602002 0.2522742 -0.3577565
5.597981 0.2626646 -0.3643526
5.554932 0.2513763 -0.4300584
0.5304135 0.3046183 1.763391
1.484148 -0.3873861 2.288944
-2.315502 0.7429272 0.3056721
0.2240405 0.3266981 1.589998
0.1958298 0.3419156 1.626467
0.800214 0.1984042 2.034225
0.2252849 0.3169762 1.712639
0.6443751 0.1894792 2.016929
0.8794574 -0.3642756 2.217326
-2.593232 -0.7080208 -0.06827672
0.88529 -0.5559322 2.195991
-2.411009 0.8900315 0.1018624
-0.9841938 0.4350733 1.282213
-1.001707 0.4377917 1.286421
0.9840919 -1.044474 2.272083
-0.9805808 0.4295886 1.326219
5.265271 -1.062757 0.6558245
2.869236 0.5830361 1.185757
2.415178 0.5118366 1.477645
1.543419 0.4266759 1.487914
2.438174 0.4909583 1.419944
4.277683 0.7415229 0.7825913
1.652476 0.4870716 1.336441
1.855778 -1.529844 1.833693
2.529704 0.599201 1.146637
2.537613 0.5798202 1.172224
2.995678 0.672799 0.972865
0.3997312 0.5535954 1.234053
2.673396 0.61514 1.050922
2.221407 0.5543805 1.246844
1.438178 0.2110817 2.089484
3.685153 0.8385475 0.5658657
2.529921 0.5826862 1.170364
0.2859044 0.4501082 1.422137
0.3232273 0.3825618 1.510945
2.235927 0.5032076 1.310035
3.630016 0.8339557 0.6588476
2.563581 0.6178637 1.113207
3.722857 0.8696925 0.5560735
0.4217823 0.3631298 1.394347
3.83922 0.9178166 0.4129767
4.747505 1.047127 0.1456773
4.916173 1.07906 0.04703593
1.214904 0.4369339 1.465092
4.649842 1.01383 0.2019883
4.263233 0.9120398 0.4403273
2.285423 0.5361783 1.245709
4.16462 0.8825385 0.4837812
4.271794 0.9142484 0.4502146
2.849186 0.6447329 1.063333
2.35026 0.6076679 1.094989
5.347233 0.4690727 -1.340716
5.337446 0.471438 -1.351576
2.655377 -0.8218025 0.8164994
0.6828555 0.4474304 1.403191
2.673134 0.619981 1.072744
0.3657436 0.5312692 1.348436
1.297632 0.5418005 1.174245
2.54077 0.5871027 1.188941
2.576347 0.5475287 1.35192
5.343575 0.03532865 -1.576371
5.360219 0.5267684 -1.217517
5.492836 -0.4284725 -1.209009
4.618601 1.037978 0.1811836
5.443207 0.52997 -0.8119662
4.511435 0.9426343 0.3349752
4.603021 0.9323243 0.2561886
4.633793 0.9448228 0.3429035
4.821599 1.04261 0.1508177
4.913438 1.082814 0.04079311
4.921103 1.083436 0.05638519
4.739569 1.035242 0.1363896
5.370084 -1.101775 0.7409261
3.830143 0.7774431 0.7222927
3.865022 0.7926679 0.7528421
4.914899 1.025493 0.2271058
5.033738 1.102543 0.1006337
2.428026 0.4921758 1.42991
5.691709 0.245218 0.1073219
2.435742 0.4955163 1.434593
5.612128 0.9287732 0.4080127
5.524349 0.9038979 0.2551725
1.847286 -1.575544 1.833882
5.606546 0.9375318 0.3766504
4.859159 -1.149469 0.8398728
4.871167 -1.170592 0.8737434
0.3228202 0.3710445 1.535771
1.456788 0.2075802 2.060591
5.959174 -1.016018 0.6072572
5.954234 -0.9873086 0.6245217
4.840884 -0.6543133 1.148295
1.413753 0.2192438 2.148901
2.849372 0.6082447 1.12432
1.812862 0.4626307 1.449792
1.841347 -1.451442 1.809699
4.887866 0.5097532 1.613469
4.541236 -0.3509561 1.706073
4.567495 0.9696656 0.231605
1.472712 0.2039282 2.011788
2.391241 0.5072815 1.371039
4.686672 1.0201 0.1669443
2.84969 0.6136737 1.148898
2.69303 0.5544812 1.214919
2.957608 0.6092296 1.149687
3.52872 0.589925 0.9944719
4.645308 0.9763957 0.2988099
4.494165 0.9474315 0.3763965
1.991816 0.5413484 1.25949
1.766783 0.104509 2.259168
0.7042999 0.3605721 1.606403
0.3206103 0.4378072 1.396833
3.928845 0.7804903 0.6849935
3.671328 0.1522948 0.8857968
3.657254 0.1600582 0.8668163
3.967977 0.7701558 0.8059328
2.692181 0.4493939 1.310319
1.869944 -1.469456 1.874765
4.022895 0.8033502 0.7114246
4.020966 0.798562 0.716049
4.92054 1.034316 0.2397655
4.018063 0.7996122 0.7024755
5.374007 -0.7916102 0.8703817
3.58402 0.6542306 1.011138
3.985685 0.7726212 0.8098722
0.5609949 0.2793402 1.779331
1.209176 0.2805914 1.745638
1.74787 0.2841212 1.894804
0.1853631 0.3226271 1.651305
1.834607 -1.551932 1.845079
0.2372905 0.3119667 1.69605
0.6808971 0.1848998 2.050788
0.4714073 0.1870884 1.947511
1.895447 -1.251871 1.962643
0.01230766 0.1493458 2.074486
2.297104 0.08182219 2.259337
0.4167112 0.1953941 2.03861
0.9746457 0.1652579 2.104582
2.718975 0.1512084 2.206337
2.74216 -0.05226621 2.199994
0.4173977 0.1909523 2.04044
1.818916 -0.0928556 2.235169
0.9971181 -1.587203 2.071391
1.076335 0.1341761 2.225869
0.4923458 0.4989941 1.2562
-0.006031364 0.1605793 2.103322
1.004522 0.1203569 2.241101
3.563809 0.6395087 0.9827808
4.720048 0.8951448 0.5398914
5.651357 0.5852991 0.223251
4.751215 0.9094924 0.5588211
2.431721 0.3163379 1.86236
4.858765 -1.163188 0.8594348
4.918782 -1.083491 0.907446
4.847176 -1.07189 0.8607745
4.928574 -1.362538 1.029998
5.293971 0.8652495 0.5918688
5.319476 0.8742692 0.6092387
4.834027 -1.11575 0.9640178
4.891749 -0.928472 0.9704036
5.378017 -1.099167 0.727398
2.768635 0.6126946 1.120236
5.682212 0.8641229 0.4884354
4.863083 -0.9570076 1.059701
4.966516 -0.7146295 1.149598
4.825673 -0.6500344 1.031912
1.885836 -0.9078482 2.096593
5.764429 0.341614 0.6137265
5.762424 -1.086618 0.6264657
5.383212 -0.8653988 0.8565462
5.379351 -0.8681915 0.8674535
0.3180179 0.432141 1.38507
1.370527 0.266131 2.007364
5.986157 -0.9242454 0.6684258
5.935097 -0.9825504 0.6121692
5.761886 -1.095947 0.5967905
4.885475 -0.6943542 1.06725
4.834148 -0.3406897 1.159808
2.678609 0.627603 1.154227
4.831334 -0.3431799 1.537454
1.089717 0.2922654 1.739854
4.962335 -0.8239745 1.328638
5.963854 -0.7786291 0.725654
5.985481 -0.7826892 0.7387316
0.5657915 0.2786298 1.782032
0.7953732 0.3779841 1.622902
0.2580563 0.3048825 1.672533
0.2950795 0.4501508 1.419825
0.9294574 0.3196625 1.719711
0.8691639 0.3387407 1.814598
0.9190599 0.3198887 1.761071
0.2753453 0.3550566 1.526041
1.31453 0.3276951 1.745597
0.9592574 0.3039225 1.684946
0.9318228 0.3145342 1.65534
0.6609878 0.315969 1.680979
0.7545528 0.279454 1.854521
0.7934479 0.3087312 1.76797
0.788339 0.3107426 1.765458
0.638418 0.3225998 1.722064
0.6314397 0.3239019 1.725289
0.5292797 0.3111537 1.772613
0.6389241 0.3198399 1.724066
2.523893 -0.8546121 1.919061
0.7996829 0.3020041 1.736587
0.257456 0.3589611 1.502082
-0.8635213 0.2920672 1.670227
1.398412 0.2972592 1.794337
1.406931 0.2896478 1.811429
1.374202 0.4702395 1.380496
1.91761 -1.321804 1.923141
4.818633 -0.6227036 1.060862
4.809621 -0.6166773 1.046424
4.811268 -0.6927887 1.070824
1.90372 -0.8283298 2.1154
1.577444 0.0002848518 2.293227
1.794819 -0.3605876 2.225126
0.8867398 0.4842684 1.341403
0.6994148 0.364289 1.615137
5.765333 0.7120388 0.7639271
4.777043 -0.2106421 1.542404
5.977296 -0.408475 0.6699688
4.795365 0.2490023 1.485349
4.472081 -0.3268553 1.592033
5.873116 0.05866702 1.060034
1.848906 -0.1591612 2.225954
4.882309 -0.5561796 1.349664
1.429587 0.446436 1.537251
1.877058 -0.3612201 2.19102
0.4398889 0.3146105 1.553481
2.275896 0.5562235 1.215747
2.647244 -0.5689557 1.802184
4.916487 -0.8081441 1.273321
1.904931 -0.5152568 2.198034
0.5557026 0.2836339 1.788713
4.900001 0.2127346 1.559037
1.918632 -0.5112715 2.211606
1.197357 0.4845446 1.35999
4.964338 0.2261848 1.623785
5.985325 0.5984979 1.250324
-2.351394 0.8571524 0.1080443
-2.737571 -0.07133209 0.1119871
-2.373913 0.8695863 0.106213
-2.060152 -1.227713 1.905439
-2.42427 -1.01475 0.290769
-2.06951 -1.276179 1.965637
-2.275113 -0.5572762 1.299868
-2.427864 -0.2860652 0.6136896
-2.306847 -0.4474399 0.9865448
-2.42804 -0.8604473 0.3417862
-2.233457 -0.5748528 1.279493
-2.096074 -0.7315625 1.707058
-2.241402 -0.5431215 0.8852374
-2.220745 -1.237485 0.9394331
-2.42992 -0.2236161 0.3817282
-2.257257 -0.5544393 1.287616
-2.07451 -1.08398 1.970391
-2.0983 -1.104329 2.081988
-1.702664 -0.05821367 2.523061
-2.120469 -0.7489644 1.761619
-2.147658 -0.762368 1.782869
-2.043871 -1.299768 1.842963
-2.087168 -0.7367562 1.704876
-2.040831 -1.084236 1.929308
-2.07377 -1.325713 1.891701
-2.227794 -0.5736004 1.330884
-2.237776 -0.5726605 1.327738
-2.389768 -0.5077842 0.2768415
-2.047908 -1.432673 1.807131
-1.760497 -0.4128445 1.802871
-1.728714 0.04622191 2.255069
-2.227451 -1.129945 0.7364346
-2.175844 -0.7110485 1.686273
-2.51698 -0.2201352 0.4517349
-2.715478 0.9401485 -0.03022468
-1.745633 0.04818414 2.057616
-1.889596 0.07406266 2.12925
-2.034512 -1.633319 1.715589
-2.736659 -0.6241661 -0.06128546
-2.771364 0.9596224 -0.1824894
-2.436783 -0.2912612 0.6082805
-2.409043 -0.6311049 0.4176834
-2.837792 0.9860371 -0.2407024
-1.85713 -1.578745 2.660363
-2.062029 -0.9850448 1.991545
-1.857267 -1.484792 2.713523
1.440467 -0.757983 2.270247
0.9169818 -0.8231622 2.203341
-0.06737961 0.03178282 2.393408
-0.0737089 0.03607847 2.427477
0.05881017 0.007598013 2.262891
0.9786354 -0.6579928 2.344364
0.02375267 0.01474059 2.331537
1.028468 -0.5250103 2.514728
1.056068 -0.5003345 2.453789
1.016622 -0.5073978 2.415675
0.9264538 0.02780879 2.447589
0.87222 -0.06528393 2.390124
1.00951 -0.5081485 2.432629
0.9764941 -0.6765186 2.325115
0.9840891 -0.4511916 2.41613
-0.9533206 -0.5284803 2.683441
-0.5759319 -1.030626 2.573456
-2.482472 -0.2864391 0.5684276
-0.4561913 -1.03102 2.679989
-2.281392 -0.3731706 0.7551794
-2.334209 -0.4507302 0.9953843
-2.44583 -0.3025995 0.6455375
-2.418374 -0.3484078 0.7751567
-2.473437 -0.2861252 0.6177642
-2.421917 0.2992778 0.1437842
-2.269164 -0.450467 0.9910013
-2.283647 -0.5530891 1.251214
-2.051613 -1.63839 1.729183
-2.448672 -0.3745421 0.7858876
-2.751394 -0.5978476 -0.05531895
-2.294908 -0.6749612 0.8533589
-2.264541 -0.9591142 1.128464
-2.424854 -0.3127638 0.6582505
-2.413559 -0.5358317 0.9591084
-2.269186 -0.8037298 1.205132
-2.413228 -0.3182694 0.6482836
-1.27739 -0.3362217 2.899149
-0.7621982 -0.1137209 2.668725
-2.455436 -0.1568938 0.3337872
-2.335315 -1.387819 1.508415
-1.371823 0.1769905 2.006095
-2.53981 -0.366773 0.8014278
-0.8805342 -1.048068 2.716417
-2.054826 -1.232649 1.354788
-0.9973993 -0.75854 2.682278
-2.14843 -0.7186443 1.655086
-2.003364 -0.7639882 1.7101
-2.586235 -0.4849277 1.07421
-2.073696 -1.725482 1.713925
-2.191036 -1.394872 1.433418
-2.113597 -1.367651 1.408524
-2.045714 -1.106743 1.361401
-2.051191 -1.287868 1.969833
-2.014938 -1.055736 1.722545
-2.134671 -1.605535 1.777099
-1.852652 0.08548376 2.141182
-2.035327 -1.349402 1.383275
-1.868018 0.08398863 2.143881
-1.631287 -0.3542785 3.085669
-1.860334 0.08740643 2.12224
-2.06446 -1.159033 1.945261
-2.444089 0.5716765 0.2085018
-0.1966469 -0.993293 2.572342
-2.103638 -0.9098009 2.07494
-2.101038 -1.330544 1.924281
-2.008061 -0.7074399 2.111852
0.6982833 0.1083845 2.280521
-2.116157 -1.296624 1.106764
-0.8355305 0.2792141 1.699378
-2.307056 -0.8222364 0.5858636
0.1405319 0.2090612 1.954793
1.071499 -0.4783317 2.386664
-0.9912443 0.4332328 1.280878
-1.004633 0.4032514 1.376709
-0.9811102 0.4291725 1.323783
1.064946 -0.001856229 2.467577
-0.9836592 0.3839718 1.45143
-0.9161009 0.3605584 1.407165
-0.9665312 0.3751956 1.44207
-0.8652329 0.3540525 1.50731
-0.882424 0.3385443 1.553818
-0.8663654 0.3060706 1.636587
-0.7470562 0.2813236 1.675791
-0.7656618 0.286523 1.687195
-0.7150285 0.2465501 1.786162
-2.68958 -0.7173207 -0.0837933
0.2479762 -1.064262 2.422489
-0.8253588 0.2794877 1.655547
0.09518573 -0.9543428 2.528556
0.0987958 -0.9519277 2.525546
0.1044018 -0.9464768 2.517858
-2.134544 -1.37679 1.400786
0.6943926 0.2219178 1.982035
-1.929424 -1.321829 1.321127
-1.357003 0.1657854 1.995462
-0.8031037 -1.776124 2.429341
-2.065804 -0.7352446 1.678014
-2.120574 -1.678705 1.76525
-2.1319 -1.101267 1.754192
-2.17987 -1.12008 1.782987
-0.9903281 -1.900919 2.599314
-2.08289 -1.550487 1.75359
-2.316578 0.5343192 0.2128387
-0.8861294 -1.736635 2.51377
-1.904401 -0.05161811 2.252656
-2.077111 -1.23128 1.917981
-2.033894 -0.9078881 2.036363
-2.13135 -1.564437 1.776612
-2.0937 -0.3470435 2.126335
-2.085251 -1.418114 1.856683
-2.024284 -0.9711722 1.992131
-2.046226 -0.1841295 2.174901
-1.990798 -0.8964016 2.01692
-2.065304 -1.233082 1.917021
-1.855247 -0.07171397 2.116213
-0.7232873 -1.125268 2.909724
-2.06065 -0.1793028 2.181051
-2.106999 -0.351626 2.139049
-2.055936 -0.07078469 2.228832
-2.021802 -0.9727243 1.995409
-2.057324 -0.07029817 2.234822
-2.046632 -0.1856699 2.169118
-1.0417 -0.146642 2.749075
-2.048308 -0.3588711 2.109471
-1.673946 -0.05814977 2.043691
-2.737508 -0.5356842 -0.02868841
-1.231791 0.7176313 0.5971809
0.05708421 0.2132603 1.95657
-0.3949213 0.3430594 1.620291
-2.439541 -0.5030161 0.3095893
-2.538774 -0.610091 0.4118409
-2.433065 -0.605092 0.4065685
-1.145482 0.5285826 1.049404
-1.087454 0.4654258 1.251174
-1.125268 0.5317212 1.008393
-1.11831 0.5302122 1.101267
-2.424706 -0.4629295 0.4078955
-1.112453 0.5083575 1.274155
-0.07963947 0.09016299 2.270775
-2.060378 -1.56269 1.740331
-1.10004 0.4979921 1.030153
-1.101575 0.5014477 1.098979
-1.188508 0.5646456 1.027048
-1.079488 0.5159794 1.000757
-2.275777 -0.779229 0.8091375
-2.462467 -0.4979255 0.3105208
-1.099865 0.4641457 1.181072
-0.7308825 0.2712463 1.702114
-0.1193243 0.0262921 2.366852
-0.8707305 0.358725 1.509938
-0.1333792 0.0333004 2.385188
-0.8479396 0.2944871 1.768721
-1.029112 0.4174363 1.352874
-1.199558 0.4593114 1.557695
-0.7048649 0.2658633 1.794307
-2.014932 -1.356018 1.396491
-0.7836851 0.2356532 1.832154
-1.985469 -1.329073 1.397798
-0.2591399 -0.9967757 2.569554
-0.2886553 -1.009492 2.602145
-0.2671931 -1.007754 2.564811
-0.3412064 -1.004332 2.601653
-2.413914 -0.2876496 0.5736642
-2.332262 -0.4316891 0.9267611
-2.323907 -0.442114 0.9199511
-2.452723 -0.2826485 0.5887685
-0.3790864 -1.024916 2.63398
-2.336706 -0.4357314 0.9177644
-2.382504 -0.3362042 0.710285
-0.4384712 -1.046475 2.704038
-2.502338 -0.3955281 0.5113701
-2.347486 -0.2990954 0.5498005
-2.068432 -0.4729081 0.9241514
-2.414557 -0.3327144 0.7200625
-2.264646 -0.355141 0.6431981
-2.063735 -1.843114 1.665629
-2.022651 0.66957 0.6003425
-2.002639 -1.928269 1.89256
-2.667223 -0.6290473 -0.05221712
-2.411507 0.4513652 0.1885726
-1.502097 0.02070701 2.26694
-2.014455 -1.277022 1.938074
-2.355918 0.2858764 0.1351545
-2.675593 -0.3238281 0.04723026
-2.483324 0.4864755 0.1854879
-2.186669 0.6151809 0.5399084
-2.203916 0.6268034 0.571715
-2.448063 0.4711123 0.2000036
-2.221992 -0.9562511 1.118777
-2.474969 -0.2756054 0.5941561
-2.436511 -0.2708016 0.4987875
-2.239245 0.7031422 0.3065701
-2.458686 -0.2881082 0.6163449
-2.59837 -0.03262535 0.07082565
-2.224946 -1.238708 0.9403734
-2.098676 0.4928352 0.8872769
-2.399218 -0.8577554 0.3363743
-2.568678 -0.1423945 0.2585626
-2.704539 0.4560032 0.01441629
-2.393302 -0.5200398 0.3034324
-2.070682 -1.286686 1.87654
-2.20423 -1.187806 0.8331159
-2.276453 0.7341791 0.3067526
-2.51098 -0.2519841 0.4975356
-2.444805 -0.5462869 0.3431971
-2.219059 -1.192269 0.8362253
-2.317878 -0.9706991 0.8035405
-2.025265 -1.288457 1.956229
-2.378928 -0.3406884 0.6893922
-2.654216 -0.5983826 -0.04143508
-2.68052 -0.8245344 -0.1127699
-2.225278 0.455898 0.2019509
-2.367645 -0.8389298 0.3296278
-0.9930088 -0.9822811 2.722246
-2.408918 -0.5171644 0.2796978
-2.248027 0.4564623 0.2115889
-2.355784 -0.5162733 0.3274384
-2.787076 -0.5981817 -0.05182346
-2.587748 0.5195354 0.1798222
-2.252297 0.4590337 0.1919047
-2.459374 -0.8564144 0.3418621
-2.312641 -0.4842129 0.2632833
-2.427347 0.3064219 0.1498301
-1.379424 0.1852763 2.016786
-2.597406 -0.8149484 -0.09836043
-2.501348 -0.5244042 0.3070002
-2.431182 -0.06919918 0.08203042
-2.677565 -0.08686958 0.07695904
-2.585021 -0.1471563 0.2443375
-2.61316 -0.4892381 0.3277196
-2.41487 0.8948942 0.1043127
-2.60022 -0.02903412 0.07298402
-2.521605 0.3604831 0.1189145
-2.008272 -1.35542 1.390865
-2.501601 -0.04375182 0.07947958
-1.895134 -1.506553 1.347572
-2.462832 -0.7271323 0.3648261
-2.255709 -0.8154818 0.8441709
-2.362273 0.7754391 0.3109631
-2.087372 -1.327355 1.657599
-2.289607 -0.7700305 0.8072879
-1.063524 -0.2211923 2.744122
-1.045177 -0.2362736 2.717258
-1.987907 -1.358085 1.42891
-2.555169 -0.1545071 0.2482192
-2.546705 -0.02953752 0.07975969
-2.188901 0.5391605 0.9044359
-2.311998 -0.3537882 0.7004176
-2.286139 -0.8121111 0.8531215
-2.116153 -1.300399 1.112143
-2.431551 0.30415 0.140062
-2.340294 -0.4244587 0.9411508
-2.332372 -0.4294131 0.9299086
-2.574061 -0.1460263 0.254864
-2.410272 -0.3364055 0.7003964
-2.623396 -0.1561701 0.2294551
-2.475362 -0.2794501 0.5967914
-2.783601 0.7975123 0.01016887
-2.423285 -0.4895857 0.3022236
-2.085404 -1.78789 1.702712
-2.404958 -0.4995798 0.3008324
-2.603997 -0.1378306 0.2602467
-2.677729 -0.07337914 0.1241629
-2.07454 -1.591922 1.74373
-2.26518 0.7028267 0.3749935
-2.61753 -0.1010228 0.1316732
-2.177599 0.531383 0.9032567
-2.113804 -0.7878391 1.889639
-2.070781 -1.729409 1.710864
-2.644942 -0.8231199 -0.1096644
-2.522449 -0.2333496 0.4541132
-2.549096 -0.2436657 0.4675883
-2.713499 -0.07077243 0.1193996
-2.260319 -0.3558965 0.736308
-2.696903 -0.1037142 0.1219074
-2.200428 -1.183231 0.8310796
-2.52095 -0.1360169 0.1235364
-2.688668 -0.07305086 0.1237208
-2.501389 -0.2261068 0.4488109
-2.684603 -0.08851271 0.1233242
-2.040239 -1.586206 1.756113
-2.376885 0.7758539 0.3047663
-2.371313 -0.530427 0.3161345
-1.974935 -1.955764 1.96417
-1.815104 -2.146213 2.433446
-1.811291 -2.136286 2.427006
-2.07023 -1.587307 1.771502
-2.391689 -0.5521092 1.334882
-2.393306 -0.3560667 0.7711346
-2.065423 -1.350229 1.840441
-2.499281 -0.2632329 0.5648535
-2.437423 -0.1628012 0.2975548
-2.513783 -0.22336 0.4479469
-2.10128 -0.7227992 1.692349
-2.603966 -0.1341525 0.2619815
-2.062625 -0.6894971 1.488858
-2.471245 -0.2559378 0.5426981
-2.275355 -0.5496373 1.298607
-2.432836 -0.310475 0.6515061
-2.347759 -0.4214906 0.9480336
-2.638696 -0.07383029 0.1208654
-2.491199 -0.25835 0.5608506
-2.527946 -0.1415909 0.3011826
-2.07627 -0.7819418 1.880899
-1.858482 0.09450662 2.161488
-2.395408 -0.4494662 0.9760633
-2.081107 -1.005717 2.083941
-2.314186 -0.5298831 0.3495091
-2.446313 -0.7266792 0.3684622
-1.835184 0.08284958 2.127254
-2.087026 -0.6848937 1.533674
-2.302645 -0.4820634 1.095199
-2.438377 -0.1610338 0.2936856
-2.22728 -0.5799856 1.357125
-2.412798 -0.99045 0.2935103
-2.065252 -0.7172543 2.152947
-2.025375 -0.8385254 2.025844
-1.852631 -0.06608352 2.113137
-2.410631 -0.5122138 0.2784593
-2.177602 -0.7136386 1.69695
-1.83866 0.01270655 2.178654
-1.982921 0.08441368 2.438775
-1.946852 0.03791136 2.322544
-2.014519 -0.2390127 2.233204
-1.915258 -0.0429269 2.355886
-2.46114 -0.3937146 0.5066475
-2.451318 0.5740479 0.2171982
-2.098473 -1.027095 1.816965
-2.703933 -0.3132161 0.04078979
-2.493145 -0.142554 0.3320772
-2.465016 -0.2578233 0.5149525
-2.473919 -0.2577648 0.5231901
-2.504934 0.04717718 0.1055089
-2.005476 -0.6764786 1.457924
-2.197828 -0.9009849 1.125093
-2.466069 -0.392442 0.5095457
-2.083859 -1.438315 1.832098
-2.263918 0.722253 0.3062741
-2.479646 -0.387629 0.513836
-2.508575 -0.05445489 0.07640983
-2.2969 -0.5400009 0.9324058
-2.068059 -1.019835 1.792223
-2.430347 0.4698037 0.1875152
-2.3117 -0.5389261 0.9003615
-2.039798 -1.297125 1.837205
-2.499955 -0.009832921 0.08718803
-2.347037 -0.4870032 0.2707715
-2.083374 -1.289011 1.08872
-2.493658 -0.2521841 0.5453279
-2.291788 -0.5399299 1.281095
-2.384394 -0.3392159 0.7071963
-2.294297 -0.535783 0.8878254
-2.290211 -0.5409433 1.253529
-2.017948 -1.303917 1.869461
-2.085838 -0.7545201 1.846202
-2.071577 -1.441515 1.823362
-2.933822 0.8616568 0.03315775
-2.4107 -0.3363963 0.7400312
-2.136493 -1.235333 1.769758
-2.833858 0.8149174 0.04141731
-2.194634 -0.5813628 1.266272
-2.082245 -0.7767124 1.862243
-2.020854 -0.777279 1.839182
-2.444738 -0.4440179 1.033659
-2.017607 -1.089415 1.919327
-2.04539 -1.159557 1.957367
-2.060542 -1.055612 1.989139
-1.846835 -1.877708 2.55772
-1.772772 -1.278067 2.590182
-2.233456 -0.5853109 1.360057
-2.06457 -1.152904 1.932884
-2.018013 -0.9838172 1.962529
-2.057109 -0.9228247 2.018496
-2.09207 -0.3663549 2.160877
-2.042192 -0.8450562 2.03679
-1.652646 -1.08389 3.018968
-1.624722 -0.3254365 3.070203
-1.832592 -0.1319035 2.081383
-2.171629 -0.3590384 2.211764
-1.887854 -0.03323753 2.305732
-1.7024 -0.058697 2.519964
-2.486626 -0.4671841 1.131286
-2.295685 -0.491807 1.102466
-2.704317 -0.494127 1.204963
-1.834261 -1.3051 2.682872
-1.652785 -1.001147 3.007928
-1.943317 -0.3874046 2.037438
-1.905817 -0.03872158 2.279255
-1.823001 -1.318587 2.716322
-2.097813 -0.3767518 2.182218
-1.904978 -0.0355182 2.324933
-1.780371 -0.9154756 2.905768
-1.852245 -1.107004 2.853311
-2.089473 -0.2287838 2.261256
-1.832449 -1.144602 2.817862
-1.748844 -0.641493 3.103276
-1.845297 -1.312705 2.773883
-1.75728 -0.7155227 3.059066
-1.697927 -0.6418227 3.048807
-1.809888 -0.7244021 3.119223
-2.581711 -0.4622087 1.173266
-3.228282 -0.4304933 1.345982
0.3094338 0.3656322 1.599294
0.1817348 0.2723575 1.793418
-0.6270555 -1.577924 2.385759
-0.6339506 -1.55675 2.373451
0.5151469 0.2932405 1.730078
-0.6369053 -1.477867 2.389634
-0.3209626 -1.056343 2.580933
-0.3623595 -1.02892 2.656252
0.8986439 0.2953236 1.682916
-0.2199626 -1.00313 2.523279
-0.3046773 -1.014674 2.68835
-2.079616 -1.162434 1.962379
-2.045408 -0.9034917 2.036453
-0.3007766 -1.002446 2.599406
-0.9178092 -1.021556 2.562749
-0.9277629 -1.04581 2.678375
-1.002701 -0.8671027 2.655935
-1.037734 -0.742646 2.707116
-2.054362 -1.759089 1.698088
-1.022576 -0.8784015 2.758739
-2.253793 -0.538261 1.255812
-0.9853545 -0.7048435 2.737494
-2.071864 -1.578411 1.748012
-0.9968759 -0.5917007 2.749353
-1.025495 -0.3676254 2.741176
-0.9870327 -0.5905541 2.666282
-1.040536 -0.2522304 2.743559
-1.036629 -0.2471378 2.74251
-1.04286 -0.2596546 2.735854
-1.022499 -0.2703433 2.648637
-1.032066 -0.3080677 2.732326
-2.032468 -1.143079 1.897908
-1.346856 0.1731293 1.998058
-2.733855 0.9420046 -0.02865804
-1.947352 -0.658212 2.066774
-1.852053 -1.4788 2.710675
-1.870162 -0.0217695 2.291086
-2.726082 0.9266537 -0.02318336
-2.240493 -1.601947 1.837593
-2.44968 -0.2999623 0.6549287
-1.56314 -0.307229 3.138975
-1.796075 -1.209111 2.733867
-2.770542 0.948287 -0.1349496
-2.686909 0.9318288 -0.0270432
-2.827004 0.9418099 -0.1905637
-1.843615 0.08060273 2.130309
-1.858784 0.05809739 2.196289
-2.753265 0.9420781 -0.1318829
-2.756754 0.9539474 -0.1825191
-2.828938 0.8093904 0.01524372
-2.671438 0.4263537 0.06407508
-1.82645 -1.207057 2.734807
-2.831557 0.9499912 -0.191719
-2.780575 0.7987587 0.009142266
-2.71723 0.877199 -0.07478991
-2.825037 0.9400816 -0.15718
-2.813402 0.9271218 -0.1566228
-2.805526 0.9679156 -0.232215
-2.846347 0.9467643 -0.1626963
-1.901666 -0.09162229 2.319727
-2.844278 0.9557089 -0.08542625
-2.812892 0.9318001 -0.1552842
-2.830364 0.9077433 -0.06441297
-2.702603 0.8725432 -0.06618901
-2.783821 0.9198934 -0.155067
-2.723094 0.9403125 -0.0319121
-1.932405 -0.0238267 2.30507
-2.287812 -0.4828365 1.087675
-1.925406 0.009212007 2.371886
-2.625615 0.8721094 -0.01836905
-2.898044 0.8491967 -0.004580216
-2.831701 0.9510351 -0.1925245
-2.315804 -0.4855423 1.100352
-2.097038 -0.3796954 2.201809
0.09850474 0.224813 1.859327
-0.2055118 -1.009898 2.744344
-0.4602982 -1.045027 2.733063
-2.020164 -0.3924399 2.164807
-0.4577217 -1.046509 2.741379
0.09240814 0.2207009 1.842858
-0.643366 -1.0415 2.721483
-0.8930261 -1.148884 2.710692
-0.6126465 -1.045409 2.767426
-1.01167 -0.8748255 2.754378
0.1497237 0.3063831 1.671804
-1.002459 -0.9757012 2.738236
-1.90191 -0.02763307 2.310681
1.031688 0.2575654 -0.3473093
-0.8340601 -1.123192 2.748912
-1.011789 -0.873694 2.743267
-1.096458 -0.3069782 2.715747
-1.092764 -0.3022832 2.737978
-1.825651 -1.134789 2.850242
-1.80217 -1.070646 2.807914
-1.620033 -1.210595 2.939006
-2.122977 -1.285583 1.124161
-2.425251 -0.1412385 0.2539464
-2.193264 -1.260976 0.9900839
-2.448323 -0.1739062 0.3198917
-2.190031 -1.263366 0.9900823
-1.348091 0.1739588 2.011588
-2.244977 -1.271359 1.025949
-2.238535 -1.278811 1.018749
-2.499035 -0.2517446 0.5481806
-2.278415 -0.7929137 0.8707813
-2.453196 -0.2408792 0.4051207
-2.260181 -0.8201978 0.8464313
-2.097492 -1.295045 1.094514
-2.232982 -0.9558722 1.131283
-2.68163 0.4522865 -0.002358485
-2.399865 -0.2561253 0.4413629
-2.453295 -0.2694027 0.5503465
-2.084814 -0.6788686 1.504355
-2.429574 -0.3038504 0.6467704
-2.642111 0.4218141 0.09187134
-2.086296 -0.6975015 1.567582
-2.085037 -0.3746052 2.254224
-1.920341 -0.006951277 2.327444
-2.001425 -0.4260735 2.07212
-2.355955 -0.4230022 0.9572105
-2.465377 -0.3244909 0.7387235
-2.181793 -0.7152457 1.696563
-2.386111 -0.4158723 0.9704908
-2.178531 -0.6860436 1.596608
-2.436213 -0.3419278 0.7771263
-2.018128 -1.095324 2.020653
-2.268883 -0.8069263 0.8683789
-2.272489 -0.7939361 0.8672156
-2.044493 -1.044331 1.963396
-2.121847 -1.294294 1.119265
-2.228218 -1.366431 1.892422
-2.157727 -0.799964 1.962215
-2.160638 -0.7891189 1.943848
-2.078899 -0.7762546 1.890592
-2.085249 -1.077539 2.037701
-2.128064 -0.8004134 1.92158
-2.243339 -0.7973732 0.8551432
-2.058073 -1.240962 1.915899
-2.065709 -1.04639 1.989106
-2.079836 -0.4580896 2.186245
-2.014465 -0.9632659 1.963747
-1.964578 -0.7020676 2.068233
-2.035348 -0.4503957 2.143445
-2.147031 -1.257575 1.9942
-1.928206 -0.3934616 2.028012
-1.859311 -1.570223 2.687567
-0.5365301 -1.884854 2.309304
-1.986704 -0.4509889 2.070286
-1.894408 -0.03107789 2.183113
-1.835146 -1.470249 2.653976
-1.872192 -1.370151 2.808263
-1.857631 -1.358879 2.765392
-2.051879 -0.7225229 2.068558
-2.119879 -0.42651 2.273017
-2.001714 -0.4366035 2.170074
-2.261501 -0.4512554 0.9782662
-1.87019 -1.371761 2.758508
-2.034429 0.02933244 2.476859
-2.228667 -0.599713 1.388049
-2.035619 -0.3892767 2.189936
-1.025617 -0.2053839 2.629349
-2.087234 -0.7816775 1.896462
-2.163434 -0.7505458 1.806698
-1.993001 -1.091812 2.000792
-2.020045 -1.036507 1.936387
-1.069926 -0.1815614 2.750774
0.2371039 0.3068101 1.593434
-2.15026 -1.455771 1.980278
-1.864552 0.0995712 2.165403
-1.855835 -0.0613267 2.117972
-1.868084 -0.05019154 2.149011
-1.858865 -1.478243 2.639709
-1.896636 -0.0329718 2.240841
-1.816614 -1.551634 2.597247
-1.871596 -1.2824 2.775784
-1.861415 -1.16164 2.821019
-1.839827 -1.274167 2.775601
-1.793167 -1.019259 2.872491
-1.838874 -1.288244 2.748913
-1.659356 -0.9324613 3.048473
0.5119517 0.3041241 1.675984
-1.650005 -0.9361688 3.05612
-1.843939 -0.07246357 2.09076
-1.826164 -1.189004 2.803537
-1.784898 -0.06845094 2.103328
-1.793967 0.006167459 2.158859
-1.696311 -0.7461818 2.952122
-1.71229 -0.7461493 3.01435
1.246746 0.2888318 1.831671
1.322574 0.3011934 1.809776
4.440413 0.597209 1.196466
1.067326 0.2622424 1.921818
1.409781 0.2907641 1.847342
1.291712 0.2516321 1.949105
1.237274 0.243099 1.945371
2.595461 1.343213 -0.7361798
2.294055 1.0015 0.08829103
2.350322 0.9917672 0.09542224
1.895058 -1.781472 1.763092
1.205706 0.2167259 2.001086
0.8719429 0.1807497 2.066307
2.387966 0.8209098 0.4993012
1.777083 -1.764428 1.753906
1.202529 0.2197444 2.003518
1.302073 0.2497067 1.927138
1.063725 0.1639704 2.077074
1.920167 -1.798617 1.771504
2.655498 1.056472 -0.01611259
-2.285147 -0.5151327 1.130505
-2.224809 -0.9587064 1.312492
-2.332442 -0.4752141 1.11546
-2.145216 -0.9992341 1.264211
-0.3349188 -1.011505 2.612955
-2.343669 -0.7428213 1.034752
-0.6270215 -1.538008 2.478509
-0.6251162 -1.631734 2.456228
-0.6306138 -1.554798 2.5513
-0.6107948 -1.518348 2.437042
-0.6290854 -1.545526 2.440061
-0.6220576 -1.501858 2.453901
-2.182763 -0.7290566 1.297342
-0.6315666 -1.515263 2.496914
-2.222338 -0.6905628 1.341486
-2.154956 -0.6332172 1.429545
-0.4115065 -1.072536 2.889947
-0.4231408 -1.037398 2.679168
-2.224464 -0.6474922 1.479544
-1.981291 -0.5705234 2.146491
-2.076624 -0.7752097 1.888346
-0.8448312 -1.144423 2.729486
-0.8187219 -1.093072 2.852381
-0.8247221 -1.11225 2.758354
-0.8027028 -1.072994 2.763216
-1.991196 -0.7786157 1.750238
-0.8116058 -1.081718 2.835092
-2.02867 -0.7764715 1.809479
0.4636766 0.2044941 1.687591
-1.536247 0.03527171 2.318193
-1.530368 0.03384447 2.303642
-0.972047 -0.982413 2.743279
-2.023571 -0.9035367 2.026439
-0.9533474 -0.9977586 2.71373
-2.08016 -1.084819 1.995867
0.2279473 0.3181022 1.717717
-0.9813667 -0.7043663 2.742
-0.9975514 -0.5585251 2.745735
-1.041987 -0.1684005 2.669276
-0.9136736 -1.045456 2.692974
-0.003685175 0.09662785 2.24475
-2.051422 -0.6400282 2.117703
-1.060975 -0.213618 2.739724
-2.036367 -0.643526 2.092629
-1.071067 -0.1793685 2.75188
-1.064261 -0.1780496 2.765269
-1.977435 -0.004418905 2.333563
-1.880367 -1.581765 2.729349
0.1763291 0.2587015 1.847654
0.6658795 0.2992103 1.79985
0.08474427 0.1853585 1.898124
0.1075917 0.1777187 1.99082
0.05538753 0.2091658 1.964489
1.930084 -0.9221475 2.079677
0.0366812 0.1859773 2.017498
0.1009605 0.1830201 2.037824
0.1220075 0.1979411 2.083281
0.6104606 0.1724251 1.995814
0.03704315 0.1264236 2.182758
0.7981846 0.199405 2.038282
0.01712421 0.1155429 2.216096
-0.1603736 0.0003684204 2.218258
-0.1422694 -0.01323357 2.281939
0.6563358 0.1787895 2.063467
-0.008276156 0.1032438 2.16611
1.833487 0.4772011 1.425347
0.9553462 0.1763317 2.053602
1.518436 0.4142867 1.541705
1.185823 0.3270104 1.759647
1.399018 0.281785 1.830726
2.023966 0.4710236 1.26277
1.939003 0.5218806 1.337187
2.199811 0.6300123 1.027235
1.011293 0.1193568 2.255419
1.894891 0.5122482 1.338873
1.399943 0.2846501 1.844183
1.880444 -1.80104 1.782016
2.422532 0.48966 1.409544
4.467874 1.394443 -0.7383081
1.228978 -0.006858648 2.1077
1.827799 0.4558461 1.420348
1.977731 -1.838126 1.841783
2.776056 1.504736 -1.133121
1.452199 -0.1821401 2.303011
2.89358 0.6113891 1.147437
0.4791195 -0.8893345 2.361313
0.996312 -1.077531 2.116313
0.9229382 0.2412667 2.173217
-0.6341286 -1.564893 2.368334
2.608439 1.226354 -0.5039914
1.31691 0.4202582 1.49778
0.5712031 0.1282161 2.263848
0.2317848 -1.354162 2.293202
0.8062918 0.504247 1.295475
-0.04253339 0.03457525 2.430104
0.7152756 0.411798 1.468568
0.8729742 -0.9846654 2.130679
1.005113 0.0984026 2.239658
0.5607303 -0.8975216 2.414061
-0.04463325 0.01876649 2.379882
2.661761 -1.215337 0.6838499
-0.2235925 -0.9953105 2.589101
1.225402 0.427933 1.459324
0.9000202 0.2937115 1.71191
0.2303374 -1.400136 2.305401
1.879797 0.6197106 1.026814
1.89372 -1.800349 1.785623
0.9247466 0.3222017 1.754103
0.9399747 0.31537 1.753481
1.068861 0.3805356 1.601813
1.070024 0.3168544 1.789335
1.672898 0.5104629 1.281932
3.532325 -1.004576 0.3387003
1.61255 0.4685774 1.412052
2.642494 1.251412 -0.4871025
1.510151 0.4536569 1.442506
2.165113 0.6255567 1.001526
0.8552402 0.205773 1.922626
1.61217 0.4675074 1.413436
0.09943213 0.1916512 1.993717
-0.07313734 0.04493475 2.21175
4.040083 1.269086 -0.5481664
2.471287 1.24963 -0.6996306
0.9377304 0.3894398 1.555997
1.06016 0.128326 2.312932
0.9213614 -0.02259917 2.297363
-1.036628 -0.376338 2.756157
-0.8560204 -1.138623 2.72813
-1.624291 -1.22174 2.984945
-1.675828 -0.9355941 3.071452
-1.666363 -1.027353 3.178547
5.792514 -1.479213 0.4941671
5.887757 -0.4257083 0.5466899
5.76914 -1.241356 0.4851586
0.6583673 0.1442778 2.08826
5.797643 -1.148933 0.5673922
4.843388 -1.171735 0.8683449
1.607793 0.4730236 1.413517
5.400332 -1.110799 0.7460666
3.646454 1.422917 -0.8945284
3.236662 1.161713 -0.2781341
3.655025 1.426634 -0.89714
4.320529 1.291714 -0.4852494
4.415936 1.221351 -0.4157696
5.495975 -0.6747121 -1.269937
1.779678 -0.2848944 2.2187
2.767067 -1.685657 1.569663
2.757356 -1.569876 1.587915
3.679295 1.417963 -0.9063013
1.865798 -0.2843418 2.204962
1.842348 -0.1475469 2.223001
1.854997 -0.2761987 2.209068
2.788771 -1.623513 1.54916
2.793211 -1.634502 1.578765
2.786138 -1.633538 1.566724
2.781718 -1.637159 1.557956
5.498816 -0.4347511 -1.167156
5.877019 -1.349474 0.2200635
4.387495 1.217872 -0.4305118
2.726971 0.6779673 0.9329139
2.670705 0.6150556 1.041262
5.42361 0.3735281 -1.030395
2.673039 -1.222744 0.6363734
3.434632 0.8044642 0.5942777
3.538855 -0.9995603 0.3370155
3.566569 0.8667815 0.5386889
5.469562 0.1874644 -0.9191132
5.541738 -0.2916642 -0.8654556
3.767502 0.9222564 0.3930162
4.380163 1.166433 -0.159617
4.564278 1.140607 -0.08766044
4.893666 -1.137119 1.015221
4.868883 -0.9554309 1.059
4.890978 -0.9676344 1.083798
4.805595 -0.4110335 1.1475
4.825355 -0.3429409 1.151247
4.828961 -0.3404942 1.153975
4.781744 -0.6188964 1.029091
4.846859 -0.6795413 1.163555
0.6002547 0.1638632 2.096797
2.647183 -1.106682 0.7381148
0.8198654 0.1990388 2.091589
1.20379 0.2195779 1.98561
1.919751 -1.317971 1.926777
4.370707 -0.2377557 1.550628
1.797495 -0.2779591 2.173499
5.673496 0.5704586 1.31474
1.786436 -0.3563511 2.213733
1.836151 -0.3366047 2.214542
1.861525 -0.251693 2.205745
5.674953 0.5691847 1.313349
1.868101 -0.36025 2.209258
1.872767 -0.3560689 2.220789
1.842856 -0.01667302 2.224645
0.580631 0.1789464 2.037717
1.827847 -0.2275419 2.219986
0.9472713 -0.8288932 2.254161
4.159462 -0.3101023 1.72933
2.804627 0.5723037 1.129412
2.795123 0.5754648 1.201254
5.620642 -0.8657722 -0.820769
3.640443 0.7828448 0.5706528
5.434555 0.5358287 -0.8017592
5.657591 -0.7546879 -0.5552893
5.47787 1.065048 -0.574439
4.564996 0.9185829 0.3105787
4.127974 0.8608783 0.6199212
5.727893 0.07702989 0.1509871
4.803114 -1.176786 0.8188843
4.883594 -1.147038 0.8458729
5.980845 -0.9321718 0.6565626
2.648869 -1.24922 0.6793801
4.858493 -0.9411792 0.9476941
5.393159 -0.975844 0.8085694
5.67214 -0.4923323 0.8674403
5.388329 -0.8045412 0.8656989
5.971434 -0.7634989 0.6979465
1.71956 -1.77971 1.780147
5.994279 -1.17198 0.7195988
4.874197 -1.225478 0.8957153
5.943334 -0.7674264 0.7082705
4.812896 -0.6216898 1.07056
5.885866 -0.484374 0.8480797
5.987194 -0.4769883 0.8212999
4.864197 -0.6288289 1.145893
5.982349 -1.154725 0.7231398
2.772379 -1.603161 1.588011
0.6683679 0.1877843 2.071874
2.642443 1.756635 -1.789766
2.625047 1.002631 0.07532129
0.9425056 -1.14426 2.069556
1.926521 -1.394948 1.892488
0.9339368 -1.156683 2.082846
0.817755 0.7404944 -1.672604
2.598202 1.335562 -0.7213576
2.479762 1.041431 0.1038986
2.60712 1.346925 -0.7296015
1.497381 1.389249 -0.9060818
2.261706 0.8445973 0.4653442
0.9447041 -0.8196255 2.258224
1.01465 0.1116424 2.178139
0.2554056 -1.168476 2.369818
2.916916 1.181362 -0.3181763
2.453545 0.9321364 0.2484241
2.539727 0.8552527 0.4764266
1.770531 -0.1649471 2.232597
0.0887522 -0.9537334 2.561147
1.713084 -0.2248263 2.237572
1.616385 -0.3581803 2.269943
4.10667 -1.031709 1.365335
5.699108 -0.4956246 0.9045423
4.087328 -0.968461 1.451171
5.96151 -0.2199316 0.9573954
5.825765 0.6302167 1.076427
5.887901 0.3449821 1.121368
5.802649 0.6225063 1.048696
5.868731 0.3392204 1.096616
5.869229 0.6229902 1.109412
5.895355 0.6242427 1.156329
4.642932 -0.2066691 1.506281
4.688425 -0.2002432 1.497761
4.73461 -0.1939275 1.493022
4.850189 0.4822241 1.437437
4.062739 -0.2723705 1.636213
4.774131 -0.1899277 1.469916
5.901452 0.6754006 1.161961
4.654483 -0.2078605 1.537786
4.32872 -0.2427803 1.566221
3.859461 -0.2770509 1.688777
4.418037 -0.2317232 1.550498
4.553909 -0.2168492 1.530881
4.574523 -0.2134081 1.518879
4.505436 -0.2243449 1.530356
4.237265 -0.2580897 1.602737
3.972236 -0.2878027 1.664147
4.462587 -0.2316607 1.543465
4.546755 -0.2179029 1.512048
4.798723 -0.3515755 1.485425
4.792574 -0.3543536 1.47831
4.016631 -0.2794993 1.639573
4.163651 -0.4992238 1.778529
4.754923 -0.3755135 1.472584
4.635715 -0.3362746 1.51613
4.500796 -0.380863 1.64969
4.768763 -0.2390016 1.528066
4.653215 -0.2534411 1.625851
4.784791 -0.2407731 1.588486
4.561885 -0.2631198 1.636727
4.515582 -0.3776669 1.682658
4.74682 -0.2415304 1.632679
4.406808 -0.2881706 1.695809
4.166047 -0.4960247 1.794374
4.466405 -0.2737315 1.643842
4.430985 -0.3807739 1.655613
4.740554 -0.2432159 1.600771
4.791144 -0.2364609 1.608108
4.273136 0.288528 1.785491
4.425076 -0.2797904 1.660764
4.13363 0.2665405 1.825364
4.710464 0.3351782 1.661875
4.467072 -0.2802275 1.651937
4.585876 0.3276179 1.725081
4.810476 -0.239089 1.601108
4.539962 0.3162366 1.735739
3.323247 -1.648696 1.283257
1.803447 0.01610132 2.2516
1.680776 0.06060563 2.275122
0.8171947 -0.8395594 2.252803
1.792651 0.0733036 2.254645
1.857642 -0.1317532 2.200745
4.069894 -0.3212201 1.75472
1.849609 -0.3061438 2.212492
1.828016 -0.2175818 2.213202
1.839815 0.6365222 1.005877
0.8096591 -0.8390452 2.234573
4.380317 -0.2821723 1.680021
1.895998 -1.711042 1.711744
1.745568 0.0715744 2.256125
2.540645 0.5281376 1.346542
1.809762 -0.04328592 2.233202
1.828542 -0.2860908 2.20735
1.817054 -0.1659786 2.222919
0.9584973 -1.1465 2.102132
0.02927375 0.5365224 -1.312225
-0.01533427 0.5373344 -1.257158
0.008199695 0.526994 -1.277011
-0.01209635 0.7299263 -1.306929
0.05495558 0.7406033 -1.505407
-0.01171951 0.5080041 -1.251075
-0.01689302 0.5166678 -1.23878
-0.0004023996 0.6844054 -1.263861
-0.009636613 0.6788329 -1.269151
-0.003169794 0.6806579 -1.262938
0.002171216 0.6355229 -1.240637
-0.01414308 0.4927173 -1.1921
-0.02516715 0.4920347 -1.17808
-0.02414978 0.4814374 -1.156359
0.1351251 0.5420474 -1.319208
0.01157041 0.566722 -1.380684
0.05328122 0.4950895 -1.199986
-0.03055626 0.4667363 -1.119334
0.01529957 0.5644722 -1.363234
-0.01949732 0.4691132 -1.122067
-0.03028474 0.5922764 -1.104595
-0.03537086 0.5763664 -1.088644
-0.03750679 0.5830606 -1.087994
0.05704021 0.5552976 -1.345189
-0.04765731 0.5807416 -1.037814
-0.03796525 0.5606581 -1.039333
1.184019 0.1724477 2.10979
1.681453 0.4986079 1.324015
1.867632 -1.474509 1.853694
2.035298 0.7106803 0.7665542
0.9382594 0.8049492 -1.46827
2.161651 0.7564248 0.6908973
2.748234 1.481741 -1.140735
2.275058 0.8306693 0.5658149
2.5116 0.7761306 0.7074533
2.454806 0.9417212 0.2619396
1.320458 1.581147 -1.480818
1.874805 -1.576837 1.835751
2.412067 0.8994667 0.30433
0.7393173 0.1807562 2.065248
2.463467 0.7155759 0.8179182
1.908471 0.6801487 -0.1267004
1.624068 0.5236056 1.296027
1.93151 -1.522833 1.837971
0.8072998 0.1540928 2.170382
0.8127624 0.1466706 2.167831
3.046613 0.8515581 -2.181189
1.927741 -1.56644 1.823605
1.17012 0.1954054 2.047203
2.64764 -1.494188 1.645299
1.870722 -1.498617 1.866607
4.911439 -0.7204625 1.269068
1.011106 0.1123113 2.226041
4.761826 -0.194675 1.463022
1.918627 -1.186303 1.967011
1.546539 -0.3014378 2.267221
1.478914 -0.1288968 2.308679
1.72175 -0.2804074 2.26421
0.9288944 0.01846238 2.433703
1.532008 -0.1327476 2.295121
1.461945 0.07411674 2.353535
1.632308 0.06720258 2.295111
2.697641 -0.4882166 2.010296
1.460527 -0.4092804 2.294583
0.9911245 -0.3104016 2.450084
1.661947 -0.2960199 2.244082
1.859029 -0.3024993 2.205024
1.560368 0.09027223 2.316355
1.442933 0.03231822 2.30992
1.641022 0.002992732 2.264062
1.758863 -0.1017093 2.262574
1.454362 -0.1969463 2.311366
1.82945 -0.3466062 2.210116
1.01967 1.022076 -1.352096
2.016644 0.9991416 0.08890931
1.50411 1.532439 -1.309635
0.8503747 0.5111716 -1.084403
0.9207265 0.2534353 -0.3771728
1.118452 0.2517495 -0.4299755
1.018774 1.134732 -1.304232
1.860051 0.7981292 0.2114604
1.359574 0.912789 -0.1533659
1.442785 0.6502336 -0.06184698
1.398009 1.338058 -0.761632
1.859892 1.079373 -0.2700626
0.9711514 0.7942908 -1.481324
2.747517 0.9539353 0.2724113
1.029328 1.635489 -1.478411
0.9443744 0.8797932 -1.195501
1.652888 0.7100957 -0.08768713
1.006931 1.023612 -1.346952
0.9834707 0.9209723 -1.393454
1.879775 1.121171 -0.2710793
0.9247878 0.2602683 -0.381575
1.060555 1.3398 -1.217873
2.114706 1.016186 0.06443691
1.662534 0.6763707 -0.1191138
0.9710138 0.8168687 -1.435101
2.258491 0.7268228 0.813819
1.7839 1.238886 -0.5364932
1.420171 1.319483 -0.7826
1.914208 0.6658357 -0.08840875
2.651199 -1.093661 0.753315
2.658321 -1.110944 0.7557909
1.031022 1.097582 -1.378208
2.129137 0.5424725 1.256598
2.35082 0.7373269 0.7615831
1.416973 1.324819 -0.7839924
1.117625 1.571213 -1.460053
1.898542 0.5566121 0.07825769
1.282915 1.264711 -0.6070463
2.577502 0.7839633 0.6733147
2.224739 0.5584524 1.23866
2.558009 0.9196497 0.2785358
2.341029 0.9819507 0.1602282
2.722552 1.073422 0.06308531
2.387272 0.8283892 0.5839084
1.514299 1.369876 -0.9223552
2.702554 0.7892526 0.5983468
1.842176 0.5827715 0.1727716
1.462795 0.04219167 2.320712
2.709752 -0.4313334 2.02501
1.541942 -0.253215 2.285895
1.527809 -0.194065 2.302564
1.448759 -0.03243184 2.321789
2.937895 1.219442 -0.4232076
3.108264 1.552405 -1.447189
1.499344 1.627147 -1.558843
0.9950577 0.9205469 -1.393232
2.71337 1.084028 -0.09158253
2.898901 0.8332215 0.5954593
2.906666 0.7108824 0.9117476
2.886734 0.82753 0.5851423
3.072795 0.6116216 1.198781
1.852399 0.5813462 0.1451759
3.034602 0.600078 1.13573
3.189002 1.48965 -0.9427672
2.906396 0.8413541 0.6041665
3.039995 0.6021159 1.143206
2.260089 0.8425502 0.4857322
1.492682 1.543886 -1.311012
3.294331 1.185445 -0.296595
3.332132 1.431635 -0.8880984
1.03887 1.830635 -2.084101
1.77676 1.244656 -0.5344498
2.029634 0.9978954 0.08397136
3.357528 1.008973 0.1237844
1.36767 0.8617992 -0.1835387
3.266332 0.9880133 0.3522439
3.255468 1.068518 -0.06450918
1.137244 1.555955 -1.461069
1.970036 1.02459 0.02781005
3.328383 1.089588 -0.1608988
3.277283 1.084786 -0.04081354
3.386196 1.222141 -0.4046039
1.623355 0.5974966 0.04215089
3.383525 1.214872 -0.3923256
