# .PCD v.7 - Point Cloud Data file format
VERSION .7
FIELDS x y z
SIZE 4 4 4
TYPE F F F
COUNT 1 1 1
WIDTH 1668
HEIGHT 1
VIEWPOINT 0 0 0 1 0 0 0
POINTS 1668
DATA ascii
1.92475 0.6354421 0.954884
2.205696 0.7025026 0.8888642
1.528524 0.4102991 1.53714
1.926868 0.6436042 0.9545551
1.693205 0.8155586 0.5095997
2.208788 0.7038696 0.8888081
1.785763 0.5527222 1.161283
0.6396431 0.08340422 2.260265
0.644421 -0.8407609 2.325879
1.062429 0.1631178 2.140757
1.0789 0.1725049 2.16112
0.8818113 -0.8470221 2.278655
0.903047 -0.0340631 2.277538
1.235592 0.4441619 1.451705
1.367805 0.2269185 1.948905
1.074047 0.124829 2.20603
0.9535935 -0.5490286 2.238293
1.133013 0.1722355 2.06669
1.923395 -1.325274 1.927514
0.9312116 0.3108433 1.729917
1.212326 0.4729326 1.346957
1.914194 -1.292216 1.935669
1.487783 0.604674 0.08748785
1.498285 -0.252313 2.297598
1.499945 0.6050103 0.08665961
1.908734 -0.926513 2.081401
1.517793 0.8114835 0.4896408
1.640512 -0.1268268 2.303704
1.94316 -0.9188032 2.138856
1.675106 0.717928 0.7459435
1.83501 0.1147118 2.247313
1.495788 0.6091513 0.08617046
1.946347 1.469388 -1.243575
2.02359 1.581424 -1.507765
1.929219 1.657952 -1.736305
3.27833 0.9311421 0.2715612
2.187216 1.636304 -1.630138
3.489748 0.9162185 0.2797848
3.265764 1.062762 -0.06175965
1.451033 1.483438 -1.372976
1.945213 1.688488 -1.767497
3.07948 1.161511 -0.4348269
3.387211 1.098524 -0.1435577
2.184176 1.645703 -1.62968
4.258348 0.9357213 0.2721668
3.614235 0.979768 0.2903815
2.18673 1.654351 -1.64766
2.19305 1.699139 -1.687479
3.530136 1.275465 -0.1683804
2.323638 1.687183 -1.641607
3.395129 1.200267 -0.404789
3.227192 1.192619 -0.3894214
3.380627 1.118639 -0.2994637
2.125559 1.777187 -1.941791
2.2962 1.605899 -1.574234
1.735511 1.84088 -2.16762
2.749329 1.477845 -1.163047
1.996388 1.432513 -1.088109
3.292009 0.8748308 0.370852
1.770975 1.568277 -1.448198
3.315039 0.9599682 0.2670232
1.356308 1.723708 -1.904566
1.748655 0.00863192 2.297602
1.785518 -0.5558316 2.239426
1.830836 -0.08373507 2.237454
1.970178 -0.3467059 2.282038
2.729346 -0.5992946 1.967003
1.861701 -0.3645917 2.180319
1.838509 -0.03342619 2.229965
2.795797 -0.5029587 2.072897
2.592183 -0.3177401 2.062749
2.727866 0.1485847 2.207088
2.695268 0.1423529 2.184788
2.728215 0.101524 2.193367
1.395761 0.3035941 1.792442
1.190644 0.2123677 2.062029
2.211672 0.6209558 1.00877
2.328215 0.852466 0.4827321
1.141435 -0.5860648 2.363951
1.211051 0.6702581 0.8616055
2.656691 -0.8332392 0.8093734
2.152043 0.5951813 1.012703
1.475127 0.2058484 2.084075
1.274979 0.6028419 1.044025
2.256422 0.5389889 1.219386
1.46469 0.2086446 2.07331
1.355785 0.8492694 0.4060914
1.395941 -0.1410691 2.375355
1.755741 0.2818138 1.894841
1.666881 0.6096615 0.108846
1.557764 0.2485805 1.950659
1.474084 -0.7657053 2.293566
1.476299 -0.3762118 2.262953
1.452986 0.6526005 -0.08985966
1.326214 0.6479368 0.9248267
1.909729 -0.9181734 2.050454
1.217693 0.6774956 0.8612044
2.469475 0.8380101 0.5354785
1.935375 0.2772598 1.912041
1.649844 0.05921543 2.282589
2.406618 0.4954684 1.351448
2.509197 0.5875915 1.129996
1.491797 0.4164609 1.535308
1.697346 0.8007708 0.5328238
1.773833 0.8826126 0.2509231
1.868907 0.82307 0.2371238
1.858624 0.8186535 0.2399229
1.699667 0.8007106 0.5438648
1.831778 0.785046 0.2483421
1.626346 0.5195877 1.283714
1.475299 0.2125558 2.040571
1.638532 0.582669 0.09584118
1.885838 0.8764504 0.369676
1.876135 0.8645459 0.3753316
1.430325 0.07946386 2.33258
1.902088 -1.259412 1.947032
1.59116 1.27814 -0.8472986
1.877863 0.8167751 0.5046048
1.674955 0.4981179 1.31577
2.046585 1.365706 -0.8972808
1.796584 1.153208 -0.4941168
1.966941 0.8882471 0.3517149
1.805529 -0.7061249 2.18898
2.432953 0.5127147 1.358889
1.726038 -0.07552484 2.286319
1.649405 0.05673913 2.287147
2.214518 -1.002649 2.061782
1.835154 -0.2069747 2.220349
2.409362 0.4808358 1.416713
2.423729 0.4864915 1.416414
2.692595 0.658718 0.9392722
2.701069 0.434607 1.288841
3.050868 0.6110426 1.152912
2.707798 0.4197728 1.280579
2.432275 0.4890043 1.401117
3.029774 0.5893828 1.149174
2.44207 -0.6258082 2.016567
2.721579 -0.6012921 1.959476
3.620363 0.6696373 1.014743
2.626232 -0.5203872 1.993729
2.679857 -0.2776296 2.074738
3.50306 0.6077205 0.9996683
3.53511 0.6080834 0.9799728
2.690816 -0.2766293 2.071623
3.973458 0.7522892 0.77095
1.585826 1.287961 -0.8446068
2.129016 1.228211 -0.5443718
2.379658 0.9366008 0.2129411
2.742005 0.7194658 0.870216
2.043512 1.358516 -0.8908234
2.127099 1.2361 -0.5484871
2.821395 1.120543 -0.1320583
2.603947 0.9000682 0.4621789
2.580514 0.8798407 0.4620483
2.607728 1.022041 0.009699628
2.148317 1.241825 -0.5539916
2.026372 1.322118 -0.8667266
2.744252 1.032473 0.4504488
2.153515 1.245066 -0.5560713
2.00946 1.480837 -1.183776
1.998325 1.464939 -1.168952
3.383534 1.105542 -0.1656701
3.471882 1.171695 -0.3451803
2.533193 1.333433 -0.7523227
2.608203 0.9766364 0.06437518
1.959497 1.485268 -1.255564
2.738759 0.792228 0.5827307
2.856699 0.6312818 1.04152
2.660576 1.038049 0.04481143
2.653079 1.023829 0.05225387
1.452839 1.511124 -1.387244
2.956519 0.7418534 0.7806602
3.133171 1.216614 -0.4886568
2.63526 1.049017 -0.02346334
3.042061 0.5893715 1.151358
2.932808 0.8118708 0.6207052
2.628314 1.042629 0.001642499
2.622999 1.036384 -0.02768517
1.777312 0.8861567 0.2487446
1.859108 0.8128871 0.2372895
2.52972 0.557003 1.183558
2.42195 0.9021165 0.3088344
1.586808 1.364312 -0.9046484
2.623775 -0.7322351 0.9425842
3.088875 0.937368 0.3014744
3.330852 1.199144 -0.4324301
3.048452 0.5940629 1.144619
3.503937 1.195156 -0.3644308
3.109496 0.6346663 1.158598
3.703074 -0.4119409 0.5239596
3.45802 1.159896 -0.3398217
3.278886 0.8773409 0.3500171
3.568976 -0.4086547 0.5364668
3.649961 -0.4063174 0.5281125
3.343767 0.8345091 0.5006192
3.63086 0.6760025 1.016359
3.642709 -0.3990226 0.5150417
3.53633 0.8060198 0.6150067
4.204821 1.308314 -0.6716246
4.337977 1.247362 -0.5522011
4.207757 1.321478 -0.6903921
4.309513 1.369142 -0.728426
4.35927 1.266166 -0.5512344
4.131687 1.294361 -0.674542
4.31761 1.24593 -0.5490049
1.432817 1.496332 -1.396864
1.26744 1.554271 -1.505787
1.266312 1.578539 -1.525612
1.641183 0.6712154 -0.1751512
2.199473 0.623482 1.011326
2.726999 -0.4351418 2.020149
2.709518 -0.4357775 2.011929
3.49686 0.9281985 0.2756479
2.482945 0.8530411 0.5530257
2.178913 0.9668416 0.1223714
2.850601 1.152559 -0.2712166
2.259479 0.8438787 0.4729795
2.361661 0.7400718 0.7297295
2.680467 0.5965814 1.334698
2.30501 0.9892702 0.1068933
2.591789 0.5506049 1.327223
2.475424 0.9414492 0.2218564
2.33123 0.896589 0.2205551
1.450201 1.536855 -1.420621
2.548088 1.105512 -0.16038
2.524161 0.8516151 0.4869452
2.853086 0.7582887 0.9422517
2.864789 0.6190044 1.05456
1.488792 1.367591 -0.9359314
2.899488 1.026671 0.2198864
1.601614 1.51015 -1.353507
2.959511 0.7365252 0.777492
2.908065 0.9267086 0.2599931
2.887821 1.172546 -0.2946577
2.929878 0.7385436 0.746263
1.642839 0.6766095 -0.1803146
2.936437 1.202491 -0.436897
2.939919 1.207254 -0.4429871
2.828741 1.134939 -0.2645833
2.774613 1.504431 -1.178569
2.945369 1.217135 -0.4488778
2.834337 1.135031 -0.2670187
2.784196 1.502701 -1.181251
1.582274 1.310043 -0.8668076
3.563066 0.6348116 1.000344
2.022662 1.322789 -0.8813787
3.369769 1.195098 -0.4177869
3.602334 0.6465439 0.9941442
3.143897 0.7986991 0.435009
3.570361 0.9479999 0.3189843
1.792212 0.5832385 0.1530809
3.139909 1.187023 -0.5180976
3.089984 1.582512 -1.698311
3.327627 1.055977 -0.04505699
3.369679 1.079349 -0.1055743
3.16131 1.430764 -1.292352
3.406324 1.20915 -0.4331628
3.281075 1.380645 -0.8990569
3.274062 1.37614 -0.9040248
4.101138 0.8774281 0.4230175
4.230257 0.9105607 0.2625687
3.335806 1.19005 -0.4193527
4.205478 0.9099972 0.3309989
4.285705 0.9244875 0.2267583
3.300852 1.394003 -0.9115906
3.10731 1.412286 -0.9882815
3.748088 1.398308 -0.8699909
3.082011 0.9165196 -2.384655
1.640783 1.491778 -1.278949
4.101626 1.012363 -0.1757063
1.455427 1.542332 -1.519235
3.333176 0.9836431 0.09674361
3.753479 0.9022906 0.3593915
1.593415 1.518266 -1.367936
3.327026 1.030157 0.001892612
1.98374 1.418967 -1.086293
2.904088 1.176512 -0.4446045
3.064931 1.232147 -0.4133691
2.987328 1.179846 -0.3645173
1.183632 1.83171 -2.063058
1.342711 1.713612 -1.889363
1.184119 1.831846 -2.073251
1.76579 1.549168 -1.431744
1.51388 1.63258 -1.752669
1.661942 1.591373 -1.570573
3.367058 1.075963 -0.1015396
3.293067 1.027019 -0.02747776
3.389752 1.4918 -1.148915
3.22074 1.24333 -0.5592825
2.700374 1.252386 -0.4569301
2.54384 1.329571 -0.7440652
2.876827 0.90206 0.263488
2.601395 1.303556 -0.6824116
2.385613 1.505431 -1.305344
2.895514 0.9203979 0.2667946
2.728132 1.047559 0.0136909
2.607221 1.211955 -0.466244
2.393157 1.525111 -1.316364
2.273064 1.56987 -1.540737
3.184076 1.149402 -0.384443
2.588758 1.199968 -0.4670126
2.825133 1.128944 -0.2647765
2.235263 1.635049 -1.620705
2.240107 1.653756 -1.635841
2.553177 1.233639 -0.49556
2.227592 1.628457 -1.613334
2.955626 0.6568567 0.9569872
2.616944 1.319692 -0.7070178
2.531477 1.440629 -1.208108
3.414006 0.7494714 0.6147581
3.029356 1.249564 -0.6274219
2.582394 1.520023 -1.258241
2.60868 1.689312 -1.785163
1.64361 1.456855 -1.254024
2.969067 0.9084404 -2.449443
3.462212 0.7685172 0.6133602
2.568297 1.284542 -0.6904097
3.31583 1.010147 0.1674457
3.362025 1.19984 -0.807743
3.147648 0.2333086 -3.001844
2.622682 1.71303 -1.808597
2.897848 0.7941608 -2.251317
3.008455 0.9454989 -2.510921
1.487557 1.355465 -0.9301931
2.973965 0.9226834 -2.470711
2.982158 0.914103 -2.456343
3.177877 0.3189895 -3.0203
3.253438 1.049135 -0.06209962
2.742613 1.47132 -1.157313
3.551432 0.8162312 0.6171803
2.140702 1.234908 -0.5495881
3.387076 1.198415 -0.4315178
2.644367 1.376137 -0.7606245
3.163929 0.5701801 -2.844818
2.925246 1.446479 -1.077655
3.313661 0.9661759 0.1645484
2.10779 1.228053 -0.5469265
3.564121 0.8088971 0.615261
2.043383 1.36685 -0.9106589
3.222767 1.254035 -0.5634251
2.62899 1.244259 -0.4838158
2.956513 1.761088 -2.102534
3.281634 0.5611996 -2.816451
2.907506 1.713692 -2.059799
3.19622 0.394217 -2.721431
3.374246 1.116731 -0.2941881
3.142409 1.265895 -0.5789061
3.529516 1.213669 -0.5303659
2.916206 1.43317 -1.075885
3.544449 1.224389 -0.5304207
2.417415 1.561105 -1.338978
4.171912 1.127713 -0.2336778
3.547925 1.257375 -0.5878558
3.55452 1.257021 -0.5651519
2.795445 1.538728 -1.196232
3.207566 1.184458 -0.39045
3.339993 1.01649 0.0387382
2.981061 1.510638 -1.106209
2.224381 1.628236 -1.612399
3.121221 1.428524 -0.9798601
2.257323 1.679621 -1.657797
2.078936 1.689249 -1.868019
3.319327 0.8925045 0.3731355
3.655491 1.34286 -0.844995
2.280521 1.830625 -1.949497
4.34322 1.188561 -0.3738099
2.064639 1.754824 -1.919413
3.58718 1.397624 -0.924643
2.292203 1.862779 -1.969704
2.264997 1.799639 -1.930183
3.143489 1.631141 -1.739693
3.314895 0.461745 -2.839589
2.946278 1.993534 -2.473726
3.862932 0.8139587 0.5202373
3.398973 1.505976 -1.15077
3.343608 1.479489 -1.131143
3.070547 1.630256 -1.898856
3.555702 0.6613716 0.5401549
3.489221 0.9247482 -2.332745
3.450546 0.9019114 -2.435961
3.593957 1.285109 -0.8094388
3.425368 0.5060126 -2.994345
3.408502 1.483873 -1.149783
3.146313 1.264438 -0.5802353
1.784517 1.6287 -1.494094
3.873906 1.007311 0.09127448
1.365074 1.764456 -1.941741
3.295417 1.297553 -0.5796307
1.532542 1.736731 -1.850771
3.243199 1.256308 -0.5208726
3.336822 1.017495 0.03466345
3.386276 1.189459 -0.4038728
2.560415 1.501309 -1.249327
2.726917 1.445216 -1.145382
3.483844 1.11821 -0.210038
2.052522 1.74385 -1.916402
3.108214 1.419679 -0.9953023
2.234854 1.673254 -1.721154
2.990299 1.525535 -1.128299
2.234795 1.671141 -1.717619
2.224399 1.648066 -1.629476
3.552403 1.238126 -0.5383555
3.160386 1.469579 -1.027824
3.101579 1.406421 -0.9871247
3.539325 1.230539 -0.5460064
2.443681 1.70219 -1.770027
4.105058 1.185357 -0.3535847
4.334104 1.062611 -0.1740533
2.063468 1.764743 -1.936361
2.430293 1.66502 -1.720111
4.165842 1.123154 -0.2276
2.434894 1.698232 -1.766747
3.730446 1.39873 -0.8701788
2.412404 1.647247 -1.72997
4.365848 1.155401 -0.2449141
4.39502 1.099313 -0.1608445
1.518766 2.072125 -3.517446
3.149413 1.265189 -0.579358
4.076465 1.21929 -0.4614263
3.671166 1.354745 -0.8482322
3.04966 1.078261 -2.030078
3.438591 1.503236 -1.153597
4.144439 1.228001 -0.5298985
4.277685 1.198286 -0.4548436
3.480381 1.114374 -0.2014438
4.142073 1.294956 -0.6731362
3.812975 1.346232 -0.8152294
4.40674 1.203344 -0.4341819
3.200762 1.219857 -0.5123249
2.863435 1.794196 -1.897301
3.633262 1.404374 -0.9582712
5.500791 -0.3120864 -0.889273
4.141277 1.305835 -0.6845713
4.119421 1.288407 -0.6724159
1.406619 1.81308 -3.618964
1.437616 2.343162 -3.416417
1.499893 2.079102 -3.529357
1.512141 2.059674 -3.508519
1.451164 2.502792 -3.642261
5.548203 0.2413305 -0.4054687
1.491418 2.033307 -3.463191
1.719211 1.890872 -3.686384
3.263514 1.218763 -0.3598567
3.667366 0.8280174 0.5588354
5.425024 -0.122878 -1.060176
3.314449 0.4727573 -2.9125
1.490112 1.893163 -3.266063
4.553243 1.412395 -0.8607035
2.8153 1.110557 -0.2626046
3.308151 0.478499 -2.904756
5.322823 -0.1547978 -1.555308
1.69461 1.776432 -3.501428
5.31311 -0.1487115 -1.545264
1.699939 2.058146 -3.479884
5.13651 0.7276457 -1.864612
5.291301 0.4436205 -1.360943
5.427937 0.4911836 -0.8075401
1.702743 2.047576 -3.471439
3.107473 1.855326 -2.383123
5.410401 0.5077422 -0.8294546
3.608675 0.6540117 1.014951
3.615118 0.6572958 1.013073
2.193696 0.6352742 1.018698
3.279636 0.9539292 0.09160238
3.784771 0.820748 0.5406243
2.813548 0.8668325 0.4459403
2.116921 0.8348159 0.5301589
2.011984 0.5392712 1.239836
2.132647 0.6295113 1.025623
3.337481 1.012353 0.03939924
4.1914 1.011907 -0.01281438
4.208686 1.024549 -0.001886846
2.118891 0.838366 0.5353315
2.437083 0.7223251 0.8430286
2.649641 0.6608777 0.9245933
4.511297 1.114041 -0.1457012
4.100342 0.8823659 0.4299209
3.439353 0.8737344 0.4358523
3.553658 1.144874 -0.2823994
3.46811 1.150037 -0.3413756
2.646919 0.6514053 1.036039
3.349167 1.061485 -0.08516537
3.543473 1.120614 -0.2572869
3.507406 1.120565 -0.2902802
3.614666 0.6577569 1.027045
3.117745 1.439347 -1.011575
3.909283 1.019006 0.09836728
3.283739 1.391078 -0.9189296
3.302427 1.404683 -0.9219898
4.20966 0.9077465 0.344558
3.507998 1.103976 -0.1463242
3.208184 1.473619 -1.325725
2.897877 0.8156915 0.5841756
3.752057 1.256063 -0.5584641
2.461409 0.6857665 0.9280872
4.388657 0.973477 0.2352749
3.158108 0.8973801 0.3845869
4.343025 0.9595259 0.2079644
3.040892 1.333932 -1.840029
3.162599 0.897544 0.3806135
3.411897 1.144833 -0.3233708
3.290403 0.9410449 0.2888016
3.058168 1.571424 -1.741953
2.072295 1.778583 -1.942949
4.169426 1.246102 -0.5311534
4.283758 1.202542 -0.4559898
2.132047 1.607773 -1.611848
4.109379 1.278954 -0.6745632
2.63405 1.745114 -1.835211
2.948002 0.6192962 1.09081
3.039094 0.5864926 1.119109
1.643369 1.986013 -2.540012
3.077861 0.5939634 -2.695559
3.048104 1.564 -1.740999
3.034146 1.54301 -1.728195
3.061627 1.617196 -1.887569
3.327875 0.4571936 -2.891772
3.303145 0.9603288 0.1675982
2.845441 1.775435 -1.889349
3.038623 0.5964423 1.148093
2.977892 1.170062 -0.3751707
3.053704 0.5906785 1.130619
3.460924 0.8946612 -2.318448
3.376361 0.9755645 -2.122827
3.271064 0.9750785 0.1205352
2.760167 1.731221 -2.177628
3.382989 0.6789859 -2.86449
1.537174 2.156515 -3.661057
3.333865 0.6416755 -2.766735
5.308055 0.4927013 -1.244976
3.344194 1.582965 -1.80321
3.352463 1.579845 -1.806858
3.398189 0.6849405 -2.887855
3.44471 1.0394 -2.185158
5.281589 0.4363651 -1.371676
2.503383 1.286956 -0.722706
5.277064 0.8656356 -1.199869
3.328139 0.642811 -2.765331
1.428526 2.376817 -3.458805
3.309856 0.9501807 0.2911122
5.244496 0.2761262 -1.917007
5.277002 0.6644909 -1.277645
2.491484 2.109422 -2.547024
3.053724 1.789343 -2.323227
1.81912 1.856834 -3.622029
5.181022 0.2485406 -1.957829
3.07755 1.813303 -2.337687
2.760146 2.038329 -2.601573
2.897898 2.208169 -2.77615
5.281095 0.8643839 -1.201459
5.257387 0.9210781 -1.239197
5.27657 1.15986 -1.034618
5.301862 1.126561 -0.9219512
2.725955 2.000292 -2.566779
5.181456 0.9213585 -1.498787
2.966782 0.6285711 1.091462
5.268506 1.204202 -1.050288
5.158084 0.6035995 -1.813908
2.118755 1.523787 -3.997533
3.542919 0.9309349 0.2968446
2.145911 1.609912 -4.126524
1.813352 1.853398 -3.61106
2.117193 1.535352 -4.046577
5.200007 0.614575 -1.826217
5.153343 1.052341 -1.579772
5.172546 0.9203879 -1.497731
5.136014 0.9647917 -1.676162
5.076093 0.6547269 -2.132392
5.240166 1.24179 -1.174939
5.249073 1.251671 -1.107213
4.977663 1.004556 -2.168256
2.220244 1.606554 -3.830077
3.544591 0.9321297 0.299307
5.392549 1.162865 -1.71604
5.050016 0.6171076 -2.333006
2.090112 1.924062 -3.865337
3.673836 0.830171 0.5657533
1.834477 1.930698 -3.735679
5.090786 1.384998 -1.902536
3.746897 0.8927464 0.3550813
3.743257 0.9082237 0.3675077
2.960555 0.6264424 1.080085
3.759053 0.8752214 0.3516021
3.802395 0.8986051 0.3756333
3.965912 0.7755149 0.6683627
3.873414 0.7842059 0.7039278
3.814369 0.896983 0.3727293
4.008358 0.7857215 0.6860479
4.029995 0.7943485 0.7076448
3.832126 0.9014622 0.3822137
3.467608 0.8298004 0.6199164
3.53083 1.214313 -0.5302745
3.780422 0.8856763 0.3500488
3.31073 0.8881244 0.3795213
3.88202 0.8175999 0.5094182
3.428279 0.8148359 0.6059155
3.935394 1.022627 0.1197991
3.983161 0.8369284 0.5421028
3.887219 1.004762 0.07307894
3.876314 1.01192 0.09191036
4.074934 0.8294567 0.5865126
3.977427 0.8362187 0.536291
3.969623 0.8323812 0.5413237
3.98191 0.8359379 0.5293778
3.111442 1.631343 -1.75057
4.535634 0.9532382 0.2036141
3.645064 0.8679466 0.4703668
2.835287 0.7606862 0.6627537
3.662071 0.8244737 0.5574166
2.963077 1.455544 -1.638662
3.735704 1.351262 -0.8508491
3.334707 0.9391658 0.2631643
4.5195 1.102427 -0.1257652
2.226225 0.547637 1.203871
3.41301 0.8819589 -2.394399
4.233878 1.192079 -0.3605665
4.468275 1.076497 -0.1382943
4.019074 1.180848 -0.4523722
3.46745 0.9906135 0.1231124
3.505506 0.885052 -2.382253
4.658211 1.035593 0.1677082
2.963926 0.7413085 0.7851365
4.318807 1.131153 -0.2519346
4.610156 1.028103 0.158361
4.39994 1.100019 -0.1568064
2.582488 2.098577 -2.629459
2.238312 0.5708116 1.162567
4.440142 1.110549 -0.1622774
3.491661 1.079221 -0.1289746
2.713494 0.7074591 0.8579814
3.383703 0.9119714 -2.490082
2.663105 0.6749555 0.9617894
4.860703 1.046664 0.002911237
3.000649 0.6649969 0.9631931
5.581606 0.2233279 -0.006852535
3.980202 1.517795 -1.531652
3.901033 1.454884 -1.486892
3.71822 0.715338 0.9045947
5.615384 0.2218522 0.0007220161
5.598025 -0.0738029 -0.2571736
5.712084 -0.4603078 -0.5470998
3.877285 0.7796506 0.7046019
5.569153 -0.2958885 -0.6074548
5.423991 -0.1137483 -1.060864
3.555492 0.8496893 0.4983094
5.42447 0.08905254 -0.800639
5.592792 0.5504555 -0.1014986
3.579464 0.8721102 0.4269433
5.501779 0.3002083 -0.5634912
4.051054 0.9335947 -2.498672
5.407481 0.07980762 -0.9837021
5.461482 0.1505639 -0.7584687
5.519076 0.8747525 -0.2353015
5.425679 0.0865954 -0.9808038
5.26827 -0.1289481 -1.720224
2.437872 0.7201382 0.8355605
4.107871 0.9056795 0.4053047
4.117931 0.8438778 0.6197654
3.450895 0.8105808 0.6206819
3.613767 1.37852 -0.9544572
3.293481 0.9394123 0.2854146
4.114613 0.8867465 0.4130718
4.059217 1.00179 0.1430606
4.081439 0.8260098 0.5959953
4.082603 1.012599 0.1510727
3.80355 1.333323 -0.8167422
4.086303 0.8315133 0.5868834
4.203771 0.8809097 0.4392168
3.805406 1.332951 -0.8174829
4.016972 0.98858 0.1620664
4.114256 1.016314 0.1725067
4.295602 0.8777701 0.4699639
4.213424 0.9115708 0.3624796
3.852288 1.339268 -0.7383462
4.096087 1.099744 -0.207747
3.905257 1.284005 -0.654445
4.311901 0.8793728 0.4803422
3.926739 1.269584 -0.6309827
4.048858 1.163367 -0.3152082
3.290396 0.9865127 0.1279348
2.868217 0.6035799 1.121434
4.638484 0.9109248 0.3879076
4.175728 1.103816 -0.2095098
4.371487 0.9179158 0.3163251
4.024307 1.053081 -0.5878673
4.169734 1.263989 -0.6906649
4.520661 1.001939 0.1379377
4.375783 1.192028 -0.4238202
4.304965 1.222001 -0.5945466
3.298486 0.959119 0.160404
4.559597 1.156715 -0.2509299
4.392916 1.267875 -0.5972124
3.568835 0.8528792 0.5107208
4.735251 0.9946002 0.1761164
4.432571 1.23556 -0.5017509
2.899287 0.8292037 0.5926356
4.63414 0.9815498 0.1192488
5.828957 -1.149669 0.5990669
1.975297 0.8453324 0.4961555
5.440211 -0.4764935 -1.259796
5.877651 -1.017326 0.3690601
5.133973 0.489056 -2.447706
5.435384 -0.3813816 -1.160534
5.432279 -0.4665138 -1.201349
3.337316 0.824596 0.2010113
5.718158 -0.09876867 0.2596721
5.393562 0.2438335 -0.9916925
5.223388 0.2492941 -1.622455
5.278011 -0.06258528 -1.690548
5.405998 0.6517678 -0.7705579
5.196128 0.01945662 -1.978051
5.6039 1.007785 0.1263038
5.124662 0.3064549 -2.10599
5.241271 0.8818058 -1.378271
5.28184 0.6833366 -1.273585
5.26509 0.9384994 -1.116449
4.146729 1.674968 -2.004566
5.524133 0.8688174 -0.2351474
5.411565 1.124485 -0.5922226
5.41176 1.025367 -0.6290108
4.988756 0.3762058 -2.672285
5.062786 0.3459138 -2.441273
5.316692 0.4859314 -1.242216
5.062431 0.8193044 -2.161534
5.018065 1.002546 -1.584402
3.354982 1.043723 0.01326325
5.164614 0.05137853 -2.07943
3.199887 0.9088635 0.4554244
5.894661 -0.7838756 0.6511925
5.072075 0.1442022 -2.529657
5.562616 -0.5519229 -0.7143302
3.39912 0.5909077 1.077275
5.669752 0.01240368 0.3903108
5.418131 -0.1842116 -1.091272
5.149994 0.2601834 -1.999368
5.324133 -0.1631858 -1.543363
5.279857 0.1383645 -1.546794
5.641119 -0.3052891 -0.6208412
5.6462 0.2750337 0.2261871
4.929322 0.5661201 -2.867311
5.231383 0.272128 -2.039013
5.560918 -0.04059765 -0.4569119
5.278635 0.6733651 -1.273859
5.976412 -0.4956031 0.785403
5.507644 0.2979986 -0.5621538
5.344481 0.7802998 0.656961
4.990014 0.7480147 -2.4592
3.594214 0.6446384 0.9975844
5.450051 0.1686629 -0.9562891
3.481091 0.8254138 0.640901
4.995077 0.6612116 -2.280972
2.868411 0.7696773 0.6855083
5.414209 0.1602857 -0.9529697
2.970707 0.7467789 0.793655
2.226365 0.5434711 1.199632
5.198571 0.04764906 -2.089093
5.499377 -0.3069275 -0.8794201
5.962418 -0.4976002 0.7782233
4.811373 0.9665752 -2.876487
2.866036 0.6067013 1.131646
5.03354 1.163225 -2.120363
5.070175 0.6543164 -2.131476
2.853558 0.6016852 1.118015
5.585662 0.2206012 -0.009206533
5.371416 0.25978 -1.103132
3.672845 0.8300899 0.5645491
5.542863 -0.0441515 -0.4514663
2.969823 0.7099565 0.8614289
5.416517 0.6376047 -0.7718284
2.460814 0.6827914 0.9304643
2.658041 0.7235271 0.8242891
5.012245 0.5939108 -2.323366
5.345101 0.6993504 -0.935038
5.531075 0.8758379 -0.2285915
4.922142 1.000351 -2.705996
5.556727 0.4277451 -0.2694716
5.697977 0.4414112 0.3617023
5.363094 0.7069539 -0.9344116
5.671841 0.4389555 0.3503735
5.254885 0.9179117 -1.239327
5.269044 0.9543997 -1.162242
4.159449 0.8901829 0.3299547
1.97796 0.5187179 1.280043
4.372246 0.9014577 0.3621212
4.220114 0.7727237 0.9005013
4.124329 0.8928628 0.4256621
2.749435 0.8180736 0.5947854
2.11821 0.8339356 0.5149131
4.081075 0.7285948 0.7927102
5.274412 0.7953888 -1.221222
5.4228 -0.1030351 -1.056837
2.427363 0.7073957 0.7936412
4.565564 0.9628467 0.2120425
5.251863 1.249 -1.111561
5.418883 0.08773018 -0.9774959
2.197067 0.6363584 1.023501
4.844803 -0.9237098 0.9195409
4.790139 -1.16581 0.8081897
4.934422 -0.9494825 0.9827223
2.748475 0.8185328 0.5927883
4.836464 -0.9213608 0.9160935
4.585656 0.8315145 0.432389
4.764222 1.007021 0.09987003
4.694169 0.8753229 0.4885815
4.602485 0.9571124 0.04326211
4.608514 0.8347982 0.4502981
2.195275 0.6386253 1.03141
5.363378 -0.6165789 0.9293892
4.689504 0.8662698 0.4924272
4.807862 -0.7108949 1.081087
2.49744 0.7270281 0.8823058
4.608725 -0.2192455 1.338941
4.771827 -0.2125947 1.461436
4.754792 -0.2307924 1.466218
4.850574 -0.4323622 1.184675
4.820473 -0.4152361 1.168153
4.818199 -0.6313277 1.042426
4.859799 1.042958 0.003060492
4.760684 -0.2066526 1.443445
4.607753 0.8357282 0.434876
5.663416 -0.177568 -0.1177512
4.960774 -0.6301779 1.183972
2.659536 0.6776785 0.9695857
4.828393 0.2152085 1.373623
5.40081 -0.5887439 0.9566275
4.677154 0.3162917 1.673903
5.607002 0.008265768 -0.1381593
5.656094 0.27024 0.2320144
2.82938 0.8258174 0.5695706
5.548734 0.9147084 0.2959013
2.578715 0.5885221 1.15846
2.654723 0.6749374 0.9630569
5.302222 0.2083495 -1.441516
5.085908 0.6550494 -2.137448
5.395654 0.8333039 -0.7686937
5.122793 1.164095 -1.6481
5.306894 0.9767715 -1.104436
5.629987 0.5610753 0.1841701
5.813206 0.5461156 1.024912
5.047089 1.295394 -1.992571
2.883146 0.6186622 1.103187
2.690402 0.6193169 1.05644
2.462386 0.6874636 0.9237787
1.984509 0.6446884 0.9158045
2.131225 0.6233897 1.022506
4.850277 -0.6989822 1.177533
2.80956 0.5732782 1.188634
2.121966 0.632113 1.063811
2.600854 -0.5035911 0.9999837
1.724919 0.6283082 1.033606
1.718278 0.6321942 1.05186
1.883412 0.574582 1.181454
1.714693 0.6026539 1.097253
2.000281 0.58328 1.190455
4.544487 0.3000177 1.718784
2.304058 0.7607318 0.7488996
2.97989 0.7242325 0.843939
1.931319 0.6832404 0.8884652
1.705028 0.6968163 -0.1456764
1.948809 0.6500633 0.9614763
2.243742 0.8502173 0.5084531
1.991273 0.7797216 0.6528774
2.274109 0.8210038 0.5633371
2.116738 0.7830296 0.6703812
2.01791 0.7207847 0.7785214
1.935508 0.7310787 0.7993807
2.177307 0.7716415 0.7061406
2.178194 0.7724445 0.702177
1.850206 0.694651 0.9646582
1.943587 0.7304333 0.8000764
2.1929 0.7674382 0.6724033
2.291745 0.5523995 1.245145
2.823717 0.7098995 0.8502066
2.638967 0.6411904 1.034375
3.489691 0.9145812 0.3243769
4.170856 1.112083 -0.2291713
2.552735 0.5234339 1.330103
2.794018 0.5931079 1.140886
2.422949 0.4927293 1.401002
2.406297 0.5013006 1.387504
2.444309 0.4909564 1.42235
4.030956 0.9943696 0.1278105
3.428678 0.8122183 0.5942622
4.068483 0.9928283 0.1646746
2.855844 0.6026237 1.111257
3.658907 0.8964601 0.4843334
2.87849 0.5961753 1.09571
3.531927 0.8036911 0.5986708
2.54881 0.5116901 1.28018
3.553534 0.8302456 0.5653638
2.700617 0.4597383 1.3347
2.69614 0.4491349 1.301713
4.166462 0.8648476 0.4136518
3.933204 0.7511649 0.749369
4.184938 0.8723717 0.4305514
4.79599 1.033262 0.07827557
2.456787 -0.6302208 2.03395
4.410969 0.929503 0.3303596
2.703555 -0.6682255 1.963317
2.661011 -0.5245452 1.944288
2.295671 0.08404425 2.135364
2.308466 0.08155812 2.252939
2.721459 -0.5984321 1.941213
2.716567 -0.5976975 1.960002
2.65603 -0.2839485 2.043476
4.677326 0.8626722 0.4724213
2.561649 0.1173408 2.204322
2.720602 0.1502702 2.193799
2.733944 0.1430676 2.208339
2.726083 0.1492854 2.197171
4.814516 -0.6352431 1.045792
4.977834 -0.5883078 1.400934
4.752976 0.4308104 1.480381
5.766786 0.6804804 0.7237836
1.658634 0.7004701 -0.1522097
1.651433 0.7001241 -0.1533434
0.8814164 0.6088869 -0.9169552
1.007626 1.250747 -0.8068609
0.9467704 0.9968961 -0.8333663
0.8791034 0.6385584 -0.8534668
1.535529 0.7132615 -0.1900249
0.8555589 0.5700887 -0.8096052
0.871389 0.6773844 -0.7617712
0.8557581 0.5746208 -0.8101014
0.8311889 0.5295586 -0.7768306
0.9342423 0.962701 -0.722401
0.9009952 0.776684 -0.7203377
0.9846224 1.243235 -0.6523355
0.9046977 0.8867285 -0.6734565
0.9842197 1.240167 -0.6506841
1.462715 0.8699465 -0.1616526
0.9887059 1.248331 -0.653549
0.8358341 0.6458794 -0.6928201
1.327082 0.7406126 -0.2228432
2.179574 0.7631301 0.6908969
3.441217 1.020573 0.2870086
1.935883 0.6839813 0.8982008
2.262156 0.7205772 0.8274037
2.046322 0.7077982 0.8453485
1.717643 0.603374 1.083989
2.537572 0.7902917 0.6720477
2.352412 0.7470918 0.7573279
1.708877 0.6073554 1.0888
2.55828 0.7849928 0.68055
2.169595 0.6873641 0.9492884
1.751573 0.590743 1.123933
1.749414 0.58584 1.118457
2.205652 0.6345964 1.040668
3.452307 0.917905 0.420533
3.947108 1.036032 0.1222004
1.787071 0.5655044 1.17734
2.202019 0.631982 1.021179
2.134487 0.6264513 1.038311
2.197772 0.6365158 1.025573
1.609492 0.4348658 1.410208
1.652649 0.4870102 1.351714
1.511269 0.4525507 1.468677
1.511577 0.4536262 1.457087
1.832556 0.453095 1.348364
1.826719 0.4577163 1.381353
1.820557 0.4607706 1.425471
2.100264 0.5114328 1.343545
3.637007 -0.0902487 0.7206889
1.40884 0.3003384 1.799449
2.87352 0.6167805 1.100375
1.397632 0.3060807 1.816823
1.402049 0.305648 1.811137
1.418223 0.2827131 1.822583
1.395319 0.2871986 1.881108
2.404743 0.5043986 1.382082
2.43326 0.4924434 1.423571
2.553691 0.5268665 1.320091
3.747893 0.7117119 0.9458931
2.678975 0.4980342 1.374938
1.574575 -0.3744784 2.192311
1.784615 -0.708131 2.18301
1.503267 -0.3731703 2.284902
1.511936 -0.3583497 2.276878
1.915228 -1.12955 2.0073
1.73602 -0.3473739 2.232579
1.469817 -0.2059782 2.298672
1.795723 -0.3623591 2.214893
1.851951 -0.1562642 2.223608
1.439252 0.05611957 2.370267
1.822161 0.09482984 2.249362
5.083849 -0.5698772 0.9864732
4.831287 -0.6766618 0.9887409
0.9367232 0.8513681 -1.015792
3.05712 0.5942014 1.142789
2.418781 0.5594294 1.208432
0.9491543 0.7302486 -1.231852
0.9393021 0.7348486 -1.230944
1.17162 0.4884688 1.355628
1.960631 0.4959941 1.383438
1.604996 0.6056679 0.07619274
0.8466521 0.5672342 -0.8014278
1.467209 0.6473471 -0.05191413
1.302655 0.7184321 -0.2472858
0.8518174 0.5204582 -0.7784563
0.8335027 0.5243128 -0.7725097
0.8464827 0.5202593 -0.7748201
0.8120182 0.7167842 -0.6288697
0.8918714 0.7949928 -0.6236961
1.026555 0.338307 -0.4711458
1.023356 0.3409479 -0.4662606
2.861412 0.6274669 1.059553
1.115634 0.7320871 -0.2758154
3.489481 0.8058204 0.6414992
1.147175 0.3317034 -0.1996788
1.157858 0.6739526 -0.1559735
1.147111 0.330579 -0.1875389
1.138536 0.3310842 -0.2002628
1.128238 0.3332746 -0.1730882
1.157734 0.3310048 -0.2015244
1.292849 0.3866509 1.565532
1.260591 0.3892913 1.671069
0.8975577 0.3161921 1.781936
0.5834473 0.3316667 1.707273
0.907611 0.3158035 1.781881
0.8444865 0.3185932 1.850783
0.9268224 0.3180843 1.757918
0.5981873 0.3330601 1.695781
0.5905498 0.330896 1.726647
1.165295 0.3222448 1.757378
0.4888625 0.3228005 1.82054
1.091964 0.2161842 2.000198
0.677281 0.1848274 2.072201
1.383685 0.2744672 1.921353
0.6249414 0.1899106 2.071781
0.8741048 -0.04167889 2.482225
1.518945 -0.3853184 2.283172
1.671399 -0.3715393 2.239847
0.9297345 0.02296402 2.396746
0.9524205 -0.7438281 2.409514
0.9123978 0.02477622 2.426134
1.138793 0.4108722 -0.403898
1.451827 0.6531745 -0.065981
0.9281415 0.9858006 -0.6292888
1.097603 0.4145794 -0.3705055
1.365297 0.8654546 -0.1815234
1.144486 0.4061782 -0.4034024
1.135827 0.4109169 -0.4008042
0.8583611 0.820848 -0.6042454
1.354261 0.6763422 -0.1037025
1.286358 0.8952127 -0.1982773
1.150668 0.4067059 -0.4094593
0.9619424 1.193469 -0.5451912
0.9495959 1.193991 -0.4987
0.9618411 1.195142 -0.542971
1.272694 0.9011696 -0.1848181
0.9217952 0.3556514 -0.5223143
0.8155819 0.4286099 -0.4457619
0.9211977 0.7846484 -0.9223181
1.114109 0.7333212 -0.2767338
1.118039 1.139717 -0.3046493
0.8848839 0.4376104 -0.4817044
1.230683 0.6840104 -0.01125557
1.102591 1.14338 -0.2978876
1.118605 0.7336181 -0.2731224
1.120186 0.9118693 -0.229921
0.7977594 0.4349978 -0.4428393
1.128907 0.915944 -0.2302362
0.9956485 0.9091011 -1.618168
0.8662789 0.5974874 -0.3980163
1.12191 0.7305679 -0.2774722
1.460349 0.649887 -0.07450729
1.994922 0.7730011 0.6491534
2.049446 0.8159198 0.658909
2.535911 0.791317 0.6823813
2.820618 0.7149054 0.8605033
1.121398 0.6854826 -0.1261628
2.098951 0.7989902 0.600619
2.565408 0.7856606 0.6684791
3.911533 0.7783118 0.7308259
5.368619 -0.6062579 0.9295247
2.757879 0.8364977 0.5364519
2.402854 0.8253767 0.5837762
2.875709 0.8212551 0.6061874
2.554191 0.8607237 0.5016726
2.837018 0.8287423 0.5753069
2.871132 0.8307964 0.6449466
2.552545 0.8732578 0.5380169
2.562467 0.8588485 0.4922971
2.86875 0.7688178 0.7139985
2.873204 0.7628122 0.6650421
2.40962 0.8330421 0.5453517
2.532197 0.7764554 0.7029349
2.408321 0.8283206 0.5532169
2.034611 0.8867253 0.3995185
2.495579 0.8137728 0.5635436
2.956231 0.7669346 0.7559108
3.535862 0.5595433 0.9910132
1.135453 0.6288534 -0.01666349
2.272619 0.8476249 0.4836149
2.042283 0.885027 0.3937951
2.963269 0.7341889 0.784588
1.89171 0.8767654 0.3945991
1.871767 0.8732106 0.4208235
0.8480427 0.2440251 -0.2447786
2.965008 0.7392234 0.7880453
1.952115 0.8901634 0.3948896
1.681356 0.7337524 0.7834011
2.925756 0.7327316 0.7872089
2.529352 0.7758933 0.6997796
1.877799 0.8882806 0.4172895
2.541231 0.789754 0.7124633
2.562445 0.7663182 0.6938023
2.548118 0.7680749 0.7193568
3.452807 0.6065432 1.12498
2.673701 0.7116753 0.8008338
2.53328 0.7741982 0.6952848
1.859925 0.8561529 0.5166935
2.821979 0.7208014 0.8808365
2.831026 0.7122856 0.8353692
2.666141 0.7209413 0.8419945
2.07789 0.7973194 0.6120684
2.708099 0.7173316 0.8087901
2.528901 0.7925977 0.7423458
1.851588 0.8575299 0.5314476
4.241523 0.8684531 0.5067926
1.890176 0.8218398 0.5444802
2.260011 0.7719049 0.6728398
2.664826 0.7238969 0.8553353
1.869665 0.8346046 0.5748728
1.887015 0.7915126 0.6150372
1.881872 0.83156 0.5449801
2.352534 0.7470791 0.761073
2.358544 0.7477831 0.7654083
2.197292 0.7548944 0.7625557
2.734144 0.6765471 0.9316065
2.079197 0.7241498 0.7762538
1.974179 0.7752206 0.7213477
2.477992 0.8126873 0.6196545
3.060536 0.5960737 1.151299
0.8448685 0.9046943 -0.2874123
0.6932084 0.01911855 0.03414507
1.773483 0.5180986 1.305768
0.6158172 0.003058119 0.09896687
1.767901 0.5219395 1.288638
1.282164 0.5443059 1.326213
0.6347487 0.6274491 0.9039711
0.629447 0.6275956 0.8922573
1.503 -0.3712235 2.269115
-1.496419 0.1476416 -0.6273628
-1.508322 0.1487276 -0.6175812
0.4759144 0.4909922 1.306216
-1.498006 0.1489978 -0.612187
-1.636454 -0.08939477 -0.681519
0.6517376 0.1863258 2.048866
0.4959881 0.4945423 1.266073
0.7136475 0.1891304 1.95783
-1.712638 -0.4241377 -0.4818341
0.4879453 0.4831713 1.31592
0.6742316 0.1851128 2.053762
0.4904217 0.4777171 1.303534
-1.59505 -0.08523183 -0.6747072
0.4416611 0.4648406 1.38333
0.9889495 -0.7108759 2.33778
0.9212022 -0.7533794 2.526638
0.9252332 0.03043664 2.463514
0.9379891 -0.5573415 2.671329
0.9281636 0.6894886 -1.12797
1.179981 1.20837 -0.4386979
3.166017 0.9033139 0.3931454
1.927977 0.6305168 0.001068236
2.783324 0.9315633 0.2587928
0.8858459 0.6182438 -0.9175768
0.8696275 0.6763958 -0.759949
1.715099 0.6895518 -0.1564664
0.8722361 0.6597553 -0.8085518
1.190138 1.204231 -0.4337995
1.39641 0.7176571 -0.2143757
1.13075 0.6821913 -0.1346734
1.181656 1.207252 -0.4347203
2.663469 0.6453074 0.9913839
2.644329 0.6363325 1.003673
2.404451 0.8255463 0.5817877
2.965425 0.6052836 1.100089
2.781016 0.9310588 0.2649927
4.033648 0.7905934 0.6914913
2.272557 0.7206387 0.7986623
1.71777 0.6889088 -0.1591744
2.266001 0.8424348 0.481781
2.257686 0.7267051 0.8223367
1.914579 0.8579594 -0.06236652
1.894748 0.8756421 -0.05183941
2.269824 0.7240942 0.8105407
3.744746 0.8938026 0.3778207
1.673873 0.8503274 -0.1118502
1.859654 -0.276076 2.206372
3.809589 0.78499 0.6871856
2.887726 0.8574268 0.4725221
0.7657214 0.3088775 -0.5894831
0.9458396 0.7451034 -0.3197817
0.5992082 0.5319991 1.221614
0.430482 0.5597121 1.125168
-0.2487208 0.01560594 2.458537
-0.2575545 0.02665145 2.413575
-0.05752636 0.03247196 2.252786
-0.5073079 -1.448518 2.399398
-1.545836 -0.1686576 -0.4671782
-1.76589 -0.3270506 -0.7441885
-1.898017 -0.5647962 -0.8019844
-0.5352687 -1.448558 2.441777
-1.839537 -0.6696913 -0.5507168
-1.806378 -0.3404939 -0.7225128
0.9686394 0.2547438 -0.3175346
0.9414946 0.7467483 -0.3146757
1.13413 0.6335964 -0.00827938
0.9496619 0.7466785 -0.3222176
1.128604 0.6283767 -0.01378737
0.9413146 0.7452725 -0.3170599
2.278592 0.8159057 0.554399
3.836598 0.7766685 0.7173833
0.9085184 0.2607211 -0.3691784
0.8382581 0.907515 -0.2840193
2.643956 0.6250782 1.047629
1.786153 0.5656048 1.177594
1.815912 0.4639282 1.434766
1.797631 0.4665113 1.510903
2.988499 0.6584439 0.9799903
3.650709 0.8134678 0.6250467
1.306246 0.539596 1.255035
2.736767 0.6778234 0.9467112
3.871914 0.7819226 0.699365
2.251326 0.8467319 0.4925366
2.289175 0.8335148 0.4506335
2.908246 0.6489186 0.982944
0.8981429 0.3299852 1.695942
3.645427 0.8135912 0.5844137
1.441244 0.03072517 2.33467
0.3320796 0.3514718 1.987013
1.046318 -1.544134 1.952835
0.8884607 0.7255127 -1.674994
1.010019 -1.575428 2.027942
-1.062225 0.4155856 -0.6501699
-1.120939 0.2808392 -0.2669338
0.8639369 -0.8581964 2.262152
1.024456 -0.5126057 2.394897
2.567937 0.8612585 0.491224
-1.281541 0.3777717 -0.5757323
-1.553844 0.3914692 -0.5014973
-1.443339 0.3944404 -0.5382038
-1.323389 0.3797976 -0.5579384
-1.615406 0.3973783 -0.4925912
-1.24799 0.2852992 -0.3248547
2.26598 0.8228973 0.5611129
-0.1413951 -2.755818 2.478587
-1.579722 -0.195188 -0.4196751
-1.649379 -0.1883765 -0.4126225
0.8416726 0.008145887 2.552157
-1.548043 -0.1758724 -0.4567217
-1.29581 0.2686312 -0.1318858
-1.776157 -0.3247463 -0.7307882
-1.696515 -0.4197986 -0.4966526
-1.650054 -0.09999643 -0.6648939
-1.900079 -0.5679485 -0.8079253
-2.116045 -0.9132929 -0.6237558
4.3894 0.5807862 1.26294
2.553699 0.5242607 1.322556
5.360853 0.4854631 1.347586
4.824934 0.2065825 1.387222
2.116741 0.5391476 1.297481
2.558954 0.5269428 1.330087
4.820684 -0.3683366 1.516859
4.830032 0.2020306 1.411334
4.750823 -0.2425434 1.420011
4.775646 -0.2168107 1.473402
2.678837 0.50209 1.373345
4.835473 0.4545071 1.483683
4.873277 0.46854 1.450167
4.825561 0.206538 1.392783
4.864045 0.4631556 1.444714
4.796865 0.4365705 1.495941
4.820064 0.4452821 1.552083
5.061887 0.4653128 1.419994
3.766486 0.3879789 1.539817
4.619178 -0.2069684 1.516918
4.80278 0.4256321 1.505017
4.826473 -0.3542009 1.536937
4.778481 -0.2272394 1.492488
4.83932 -0.3613435 1.572879
4.463327 -0.3579975 1.628119
4.464003 -0.3614674 1.636435
4.591268 -0.2761826 1.583354
3.76905 0.3850602 1.513164
4.059899 -0.4676943 1.692337
4.587153 0.2989467 1.709848
5.555178 0.1746716 -0.3708102
4.055366 -0.4436211 1.673476
3.874527 -0.3637154 1.635296
4.135626 -0.4701449 1.662161
5.348487 -0.6947039 0.9077143
4.231473 0.2679228 1.796368
3.854756 -0.2771305 1.678915
3.875985 0.2433466 1.904446
1.405374 0.2511327 1.9202
3.873353 0.2493045 1.865843
1.88308 -0.3619069 2.190145
3.617079 0.5811042 1.05311
1.008195 -0.3053174 2.455503
0.9787356 -0.6491989 2.356359
1.448568 0.07566307 2.331499
3.549383 0.581723 0.9736277
1.660749 0.8603283 -0.09490467
3.427035 0.816605 0.6052551
1.161231 1.117713 -0.2705978
1.442316 0.879464 -0.1659743
2.181741 0.7661507 0.6843671
3.753081 0.6904393 0.9328988
1.457331 0.8996983 -0.1647335
1.703106 0.8436941 -0.14994
2.972586 0.7076169 0.9489865
3.35035 0.8144991 0.6059532
3.347693 0.8153512 0.5993503
2.255536 0.7803377 0.6831027
1.364767 0.918693 -0.1555482
3.351779 0.8158429 0.6122297
1.245559 0.7238051 -0.2136516
1.461891 0.8787642 -0.1550482
1.680778 0.8590298 -0.1177889
1.630319 1.049268 -0.03608182
1.461457 0.87822 -0.1524743
0.5219725 0.4666517 1.28571
1.102732 0.3049531 1.692115
0.9862539 -1.945454 2.020135
1.5517 -0.3933542 2.27236
1.210967 0.1845865 2.10129
1.477238 -0.3250137 2.293789
1.052477 -0.4986602 2.375121
-1.715319 -0.4149875 -0.5274062
-1.961295 -0.8807548 -0.6433536
-2.089925 -1.0237 -0.9440984
0.8470356 -0.2351232 2.202667
1.016502 -0.5104312 2.426737
-1.853229 -0.861876 -0.6529067
5.030149 1.037037 -2.213509
5.243601 0.9867768 -1.286415
5.343872 0.4184327 -1.116444
3.111802 0.8352875 -2.227853
5.108551 0.3265772 -1.956208
5.35686 0.5470052 -0.9443861
3.355673 0.5495009 -2.905853
3.645099 0.8792314 -2.358648
4.989332 0.3724259 -2.676136
3.86701 0.90273 -2.44421
5.293541 0.3100196 -1.35376
5.247161 0.6240041 -1.355653
5.28519 0.4727019 -1.236059
5.257514 0.7401825 -1.392896
5.2174 0.254616 -1.621428
4.986232 0.3696601 -2.675129
5.206388 0.3637181 -1.563411
5.206298 0.2727324 -1.603503
5.201889 0.4650045 -1.528662
2.458782 0.686581 0.9450519
2.649029 -0.2598665 0.9593
2.646637 -0.257311 0.9269672
2.645119 -0.2796917 1.056545
2.862545 0.630581 1.054169
2.80222 0.5927415 1.142709
2.797607 0.5987515 1.144413
2.633106 -0.2801516 0.9916971
1.690113 0.7311124 0.7654737
2.890294 0.7243027 0.8038947
2.210695 0.6300776 1.013828
2.198259 0.6381946 1.044992
2.583304 0.5165077 1.247547
2.094502 0.6450027 0.988934
2.418745 0.5641747 1.230291
2.55482 0.5291865 1.34552
2.13476 0.541666 1.27175
2.173115 0.4910169 1.2227
2.134514 0.5393519 1.27418
1.782861 0.5252076 1.317358
1.02583 0.5776277 1.127095
0.6439244 0.6132681 0.9869956
1.194582 0.4847458 1.348845
1.177811 0.483692 1.39651
1.962173 -1.35844 1.808326
1.924976 -1.398162 1.897727
3.984291 0.7467162 0.7487981
1.393996 0.2530149 1.951344
0.3023196 0.3871173 1.547093
3.003424 0.6794223 0.9316222
1.846348 -0.03199605 2.22865
2.278375 0.8128811 0.5380834
1.84094 -0.1574549 2.220446
3.901318 0.8336368 0.5260374
5.36827 -0.8110191 0.8538749
3.905797 0.8179866 0.5235521
5.390086 -0.8184033 0.8794113
4.047667 0.8386635 0.5366621
3.903337 0.8309271 0.5541446
3.725562 0.8154593 0.5853068
4.105016 0.8345709 0.5826928
5.363223 -0.8577135 0.8706716
2.931919 0.7970754 0.6083283
2.930256 0.7931969 0.6077513
3.693663 0.8050169 0.6207358
2.868519 0.8197429 0.5903854
3.681466 -0.4100168 0.9179068
3.956062 0.7790732 0.6954948
3.6832 -0.4098329 0.9092226
3.754028 0.8011521 0.6578445
1.881559 0.5688844 1.18733
2.135022 0.5462496 1.250029
4.414099 0.2786127 1.76828
3.546644 0.579886 0.9772722
2.003364 0.5418314 1.270999
4.405798 0.2813893 1.738909
4.07843 -0.2506282 1.609805
1.919968 0.5204352 1.268691
4.896424 -0.9937145 1.069716
4.138367 -0.4903747 1.705148
5.375786 -0.9994798 0.7859417
4.857799 -0.9026607 1.074009
1.54771 0.4280549 1.491709
0.4445027 0.4886815 1.267067
0.8614993 0.4851811 1.375727
4.833834 -0.3637127 1.158088
1.387171 0.3732776 1.593353
5.367727 -0.9843693 0.7671216
0.20333 0.3314353 1.652185
5.368969 -0.9923863 0.7779052
4.912471 -0.6822506 1.072451
1.357088 0.3660856 1.638889
1.388939 0.2970931 1.843222
1.946601 -1.357443 1.831082
0.9295647 0.1572023 2.141906
4.875087 -0.961772 0.9971435
1.945739 -1.054135 1.943609
1.835155 0.1136598 2.249872
1.921654 -1.084509 2.012265
1.829727 0.1156482 2.273409
1.931967 0.07995171 1.984632
1.871565 -0.2557497 2.199757
1.758 -0.5893331 2.227853
1.567646 0.08538172 2.357449
4.92753 -0.6824408 1.088071
1.873075 0.1074044 2.253278
1.919304 -0.9270077 2.086881
0.04034596 0.1888348 1.997516
1.002716 -1.947189 2.030371
4.822219 -0.6198152 1.059472
1.525388 0.06213247 2.531032
1.015939 0.1146924 2.228142
2.465814 0.8274271 0.6379673
3.950925 0.7801869 0.6758882
3.956671 0.7900681 0.7141407
3.516333 0.7796977 0.6490542
3.04568 0.5731859 1.009738
4.01575 0.7919509 0.7176722
3.97323 0.7489875 0.769585
2.944555 0.7694176 0.7514571
3.871514 0.7808437 0.6986015
2.930452 0.7660703 0.7550738
2.201078 0.7549479 0.7357128
4.331508 0.7542394 0.8601046
4.332474 0.7517911 0.8512227
3.541032 0.5660933 0.9942029
4.336662 0.7583277 0.8853216
4.830637 -0.6286166 1.08327
3.543493 0.5655267 0.9200954
3.629339 0.5572522 1.035841
4.887177 -0.6490883 1.003906
4.901636 -0.6682537 1.044136
5.08713 -0.5808309 1.007633
4.91008 -0.6739935 1.061295
5.09937 -0.5889035 1.027277
4.911609 -0.6747178 1.062948
5.388344 -1.005176 0.7956834
4.033092 0.6358413 1.124228
4.91232 -0.9930202 1.081265
4.863079 -0.7039694 1.087807
4.035375 0.6414269 1.126893
4.857232 -0.6870709 1.07312
2.85392 0.6366428 1.06911
2.85028 0.6403609 1.073997
4.828353 -0.6658944 1.09949
2.882489 0.6193554 1.090979
4.81633 -0.6498305 1.078615
4.504293 0.5880373 1.28262
4.506752 0.5892722 1.293442
5.651523 -0.5825832 0.8140639
4.388445 0.5715688 1.256832
4.689146 0.6068974 1.219484
4.480238 0.5761311 1.219118
2.30159 0.5479662 1.201826
4.814301 -0.07756842 1.285112
5.355 0.4835241 1.337989
2.998167 0.5874844 1.052797
4.86014 -0.6945755 1.075879
2.907654 0.5913021 1.18219
2.887308 0.5799298 1.177956
5.356141 -0.9768631 0.7552231
4.832587 -0.363105 1.160564
5.465377 0.2939803 -0.5638661
5.383043 -0.8882939 0.9213163
2.901515 0.5939165 1.194088
4.826406 -0.6588808 1.105457
4.844278 -0.2597638 1.490048
5.47389 0.9794988 -0.4680293
5.46009 0.2955889 -0.5638053
4.51396 0.5952315 1.322158
4.804801 -0.4345364 1.232175
5.816122 0.5289023 1.212684
4.390935 0.5689183 1.247601
2.696295 0.5123242 1.335397
4.849302 -0.4743775 1.350187
4.801898 -0.4419696 1.238199
4.392483 0.5852886 1.291003
5.351156 -0.8637298 0.8149016
5.607683 0.51709 1.217345
5.799805 0.5270732 1.189289
5.63795 0.5235153 1.256676
5.358067 -0.8683025 0.8275434
5.619751 0.5212517 1.232613
5.855553 0.5446925 1.264055
5.500132 0.8188244 -0.3711848
5.387301 -0.8917062 0.8616852
5.059387 0.4666745 1.40275
3.766319 0.3874977 1.585698
4.896647 -0.7413914 1.206231
4.71096 -0.1993039 1.503679
3.772481 0.3809623 1.556795
4.674109 -0.2428578 1.450294
4.678217 -0.2437771 1.49275
4.816631 -0.1635038 1.469259
4.533413 -0.2183135 1.548931
4.663213 -0.2943764 1.647602
3.770741 0.3791257 1.635059
3.881716 -0.328032 1.62885
4.743783 -0.2715541 1.60659
4.666586 -0.281338 1.662149
5.533834 0.1278752 -0.4512924
5.533546 0.1211571 -0.4530056
4.016969 -0.2912404 1.567062
5.127078 0.5077515 -1.636371
4.056461 -0.2901169 1.598165
5.522476 0.2416384 -0.409371
4.741641 -0.2462621 1.547433
4.491786 1.554278 -1.29457
5.516848 0.1240599 -0.4523656
4.358635 -0.3065193 1.661474
4.36077 -0.2678048 1.633132
4.371518 -0.2692827 1.648874
5.446554 0.9606703 -0.4754851
4.205376 1.538239 -1.573282
4.74883 0.3063951 1.599437
4.556522 -0.2851716 1.613445
5.5239 0.01255432 -0.4890525
4.779604 -0.2644714 1.577165
5.342344 0.2449511 -1.109521
4.382138 -0.3164726 1.672313
4.027738 -0.3499496 1.768284
4.356198 0.271107 1.733719
4.39758 -0.3127731 1.722038
4.2051 1.531109 -1.567227
2.982506 0.646657 1.017717
3.569867 0.5895086 0.9608959
3.625108 0.5679332 1.026698
4.829107 -0.3571786 1.135752
4.844986 -0.6854813 1.058352
3.538631 0.5723901 0.9672646
5.368557 -0.601633 0.9337947
5.394072 -0.6161078 0.9748994
5.358046 -0.6281458 0.9322358
3.612361 0.6568103 1.008806
5.384227 -0.560603 0.9272359
3.616512 0.5856053 1.065606
5.467485 -0.1300997 -0.629873
5.412038 -0.9120506 0.9018928
2.92286 0.6211403 1.156056
2.980989 0.5972172 1.075416
4.876097 -0.9726748 1.020434
5.55195 -0.2728163 -0.6068324
4.863653 -0.9510231 0.9816754
4.854741 -0.9406884 0.9592252
2.833578 0.5914612 1.077712
3.611891 0.5521175 1.090747
5.476328 0.6129282 1.01842
3.741987 0.6338712 1.088202
2.97376 0.6046234 1.131753
5.32424 -0.8349698 0.8197361
5.096502 -0.582757 1.022277
4.82211 -0.68695 1.059338
5.810959 0.5630136 1.034584
4.258217 1.518934 -1.578718
5.577716 -0.003389305 -0.3265676
5.524364 -0.04626287 -0.4601161
4.3882 0.587415 1.296835
4.2032 1.533884 -1.572793
5.474232 0.4517109 -0.5154103
5.602424 -0.1114731 -0.2851898
6.13136 0.637661 1.49358
3.764065 0.3924903 1.530891
4.747922 -0.1805044 1.475219
5.561198 0.7582304 -0.2730511
4.781704 0.4326666 1.451927
4.716705 -0.275548 1.743633
4.679883 0.2958589 1.680516
4.794291 -0.3764949 1.530062
4.829453 -0.3602472 1.534585
4.594979 -0.2405035 1.614442
4.835203 -0.3705121 1.565815
4.68651 -0.2289723 1.507873
4.796985 -0.3874741 1.530527
5.570592 0.1780359 -0.3694489
4.03523 -0.782674 1.475854
4.670109 -0.2361351 1.607768
3.788677 0.3570299 1.650406
4.414693 -0.2689433 1.707387
4.49102 -0.2625907 1.697508
4.439561 -0.221294 1.555705
4.334634 -0.2619992 1.583514
4.728262 -0.3687804 1.696391
4.257564 -0.2357011 1.530358
4.628496 -0.2444503 1.662877
4.517159 -0.3065113 1.791051
4.645311 -0.2858416 1.677321
4.576515 -0.2719957 1.559646
4.75904 -0.3636715 1.408548
4.689467 -0.2701352 1.579344
4.689305 -0.277108 1.587827
4.829721 0.4442498 1.323715
3.855482 -0.2974739 1.722266
3.986524 -0.2629668 1.631284
4.553196 -0.4067375 1.822906
4.271243 -0.3205688 1.693769
4.715701 0.3219369 1.656382
3.855064 -0.2616602 1.59064
3.859119 -0.3324372 1.668141
4.417512 -0.3005529 1.631833
3.864157 -0.3357619 1.694653
3.927091 -0.3134911 1.678402
4.060847 -0.396046 1.663718
4.059144 -0.3971533 1.726134
3.90201 -0.3676984 1.816151
3.852406 -0.2802364 1.698157
4.632392 0.3106655 1.692099
3.859118 -0.324238 1.639914
4.669306 0.3078001 1.670729
4.280201 0.2725393 1.79068
3.869036 -0.3778365 1.862925
4.502765 0.2998686 1.739718
4.599967 -0.2821951 1.608156
3.857645 -0.3676121 1.719853
3.872962 0.2393375 1.786248
3.850128 -0.281455 1.665746
4.217063 0.2623963 1.820107
3.946844 -0.4808958 1.873623
4.074629 -0.346603 1.764109
4.658177 -0.5878007 3.127179
4.809905 -0.2658363 1.64573
4.849374 -0.2724446 1.723164
4.361297 -0.2651691 1.635735
4.417322 -0.3116369 1.693522
4.467527 1.390053 -0.8761021
4.271071 -0.271065 1.71764
4.548643 -0.2503456 1.522088
4.499362 1.566229 -1.30226
4.385645 -0.2682801 1.658676
3.082374 0.5881917 1.091232
4.417851 -0.3093888 1.729755
4.628304 0.3021238 1.683584
3.015224 0.595225 1.079068
3.941621 -0.2647868 1.647451
